-263.0,-224.0,-226.0,-235.0,-238.0,-274.0,-280.0,-285.0,-295.0,-320.0,-352.0,-389.0,-404.0,-399.0,-389.0,-386.0,-373.0,-374.0,-396.0,-409.0,-442.0,-547.0,-647.0,-712.0,-777.0,-852.0,-850.0,-840.0,-841.0,-817.0,-800.0,-788.0,-771.0,-719.0,-701.0,-692.0,-699.0,-786.0,-863.0,-915.0,-1004.0,-1051.0,-1102.0,-1121.0,-1149.0,-1170.0,-1195.0,-1197.0,-1189.0,-1184.0,-1175.0,-1159.0,-1133.0,-1113.0,-1088.0,-1064.0,-987.0,-948.0,-916.0,-881.0,-809.0,-759.0,-727.0,-709.0,-705.0,-754.0,-807.0,-855.0,-912.0,-943.0,-970.0,-1015.0,-1073.0,-1099.0,-1145.0,-1132.0,-1097.0,-1058.0,-1055.0,-1011.0,-948.0,-892.0,-768.0,-671.0,-312.0,-249.0,-228.0,-214.0,-176.0,-163.0,-145.0,-121.0,-82.0,-72.0,-60.0,-52.0,-103.0,-270.0,-364.0,-550.0,-476.0,-583.0,-235.0,-135.0,-170.0,-41.0,-24.0,-3.0,33.0,18.0,32.0,133.0,19.0,56.0,190.0,-10.0,17.0,341.0,19.0,47.0,-11.0,17.0,52.0,269.0,-12.0,-11.0,160.0,444.0,630.0,959.0,910.0,790.0,736.0,899.0,673.0,615.0,642.0,671.0,515.0,489.0,656.0,611.0,539.0,519.0,672.0,904.0,967.0,907.0,827.0,812.0,816.0,779.0,677.0,604.0,550.0,499.0,520.0,464.0,453.0,439.0,399.0,377.0,366.0,364.0,421.0,495.0,514.0,537.0,529.0,599.0,619.0,692.0,627.0,639.0,652.0,595.0,533.0,551.0,562.0,604.0,705.0,900.0,743.0,871.0,767.0,702.0,712.0,665.0,537.0,483.0,484.0,364.0,421.0,567.0,604.0,817.0,914.0,1042.0,912.0,376.0,587.0,808.0,895.0,685.0,551.0,506.0,674.0,692.0,631.0,490.0,646.0,660.0,193.0,510.0,-355.0,264.0,274.0,518.0,366.0,134.0,171.0,324.0,382.0,260.0,190.0,363.0,131.0,-7.0,0.0,-10.0,-10.0,-30.0,-51.0,-72.0,-94.0,-157.0,-188.0,-196.0,-211.0,-240.0,-255.0,-771.0,-791.0,-730.0,-669.0,-644.0,-679.0,-250.0,-281.0,-310.0,-201.0,-227.0,-189.0,-189.0,-191.0,-197.0,-199.0,-200.0,-203.0,-230.0,-229.0,-234.0,-226.0,-214.0,-207.0,-215.0,-212.0,-221.0,-239.0,-237.0,-229.0,-248.0,-250.0,-263.0,-286.0,-312.0,-298.0,-294.0,-315.0,-348.0,-337.0,-327.0,-395.0,-683.0,-777.0,-856.0,-936.0,-1046.0,-1182.0,-1241.0,-1371.0,-1434.0,-1509.0,-1548.0,-1620.0,-1650.0,-1696.0,-1738.0,-1851.0,-1771.0,-1860.0,-1907.0,-1939.0,-1943.0,-1948.0,-1975.0,-1985.0,-1994.0,-1992.0,-2004.0,-2006.0,-1995.0,-2020.0,-2053.0,-2020.0,-1996.0,-2030.0,-2090.0,-2205.0,-2224.0,-2191.0,-2098.0,-2029.0,-2072.0,-2056.0,-2014.0,-1867.0,-1753.0,-1687.0,-1586.0,-1372.0,-1091.0,-1078.0,-1103.0,-1258.0,-1277.0,-1238.0,-1214.0,-1158.0,-1103.0,-1033.0,-1008.0,-975.0,-894.0,-849.0,-839.0,-682.0,-637.0,-594.0,-546.0,-429.0,-337.0,-305.0,-293.0,-299.0,-292.0,-282.0,-283.0,-286.0,-292.0,-272.0,-237.0,-227.0,-244.0,-248.0,-257.0,-270.0,-270.0,-265.0,-243.0,-251.0,-223.0,-222.0,-206.0,-182.0,-168.0,-158.0,-150.0,-168.0,-191.0,-233.0,-233.0,-227.0,-224.0,-213.0,-168.0,-120.0,-106.0,-103.0,-100.0,-98.0,-84.0,-73.0,-60.0,-38.0,-40.0,-32.0,-26.0,-31.0,-36.0,-42.0,-24.0,9.0,32.0,123.0,131.0,227.0,419.0,356.0,344.0,63.0,17.0,59.0,22.0,27.0,69.0,53.0,24.0,61.0,43.0,46.0,74.0,99.0,129.0,168.0,554.0,685.0,821.0,762.0,380.0,743.0
-243.0,-224.0,-230.0,-235.0,-254.0,-276.0,-286.0,-296.0,-293.0,-332.0,-373.0,-393.0,-400.0,-406.0,-400.0,-393.0,-381.0,-375.0,-387.0,-413.0,-437.0,-594.0,-701.0,-782.0,-830.0,-873.0,-885.0,-878.0,-870.0,-851.0,-834.0,-820.0,-788.0,-741.0,-715.0,-709.0,-723.0,-819.0,-887.0,-938.0,-1040.0,-1081.0,-1124.0,-1158.0,-1184.0,-1201.0,-1232.0,-1235.0,-1229.0,-1224.0,-1216.0,-1208.0,-1182.0,-1165.0,-1141.0,-1117.0,-1040.0,-1001.0,-965.0,-927.0,-850.0,-811.0,-782.0,-739.0,-715.0,-758.0,-806.0,-861.0,-919.0,-946.0,-970.0,-1004.0,-1074.0,-1112.0,-1151.0,-1163.0,-1116.0,-1096.0,-1072.0,-1011.0,-965.0,-906.0,-839.0,-774.0,-499.0,-290.0,-260.0,-228.0,-197.0,-190.0,-173.0,-114.0,-73.0,-65.0,-57.0,-81.0,-280.0,-303.0,-553.0,-481.0,-531.0,-590.0,-183.0,-89.0,-80.0,-29.0,-11.0,-1.0,25.0,57.0,51.0,118.0,32.0,162.0,9.0,-12.0,43.0,66.0,116.0,-13.0,12.0,-9.0,533.0,85.0,9.0,-12.0,82.0,365.0,381.0,734.0,733.0,794.0,708.0,846.0,708.0,511.0,559.0,580.0,522.0,542.0,653.0,616.0,574.0,533.0,683.0,750.0,825.0,848.0,842.0,831.0,800.0,746.0,648.0,580.0,514.0,473.0,538.0,479.0,466.0,444.0,367.0,361.0,367.0,388.0,431.0,487.0,546.0,605.0,637.0,647.0,668.0,712.0,636.0,609.0,605.0,594.0,537.0,483.0,476.0,613.0,756.0,809.0,950.0,886.0,805.0,755.0,712.0,622.0,485.0,374.0,505.0,390.0,423.0,516.0,629.0,830.0,918.0,925.0,875.0,601.0,606.0,746.0,1025.0,795.0,667.0,509.0,361.0,873.0,626.0,562.0,565.0,637.0,538.0,504.0,35.0,484.0,398.0,545.0,445.0,9.0,276.0,513.0,425.0,206.0,63.0,-2.0,30.0,3.0,40.0,75.0,-5.0,-46.0,-70.0,-95.0,-129.0,-193.0,-209.0,-216.0,-226.0,-254.0,-765.0,-769.0,-793.0,-727.0,-665.0,-635.0,-669.0,-298.0,-275.0,-268.0,-225.0,-238.0,-200.0,-190.0,-187.0,-195.0,-202.0,-207.0,-213.0,-270.0,-245.0,-243.0,-229.0,-213.0,-205.0,-212.0,-225.0,-222.0,-229.0,-243.0,-231.0,-237.0,-246.0,-285.0,-313.0,-361.0,-341.0,-293.0,-290.0,-321.0,-320.0,-414.0,-527.0,-727.0,-820.0,-913.0,-989.0,-1137.0,-1229.0,-1302.0,-1427.0,-1507.0,-1564.0,-1606.0,-1693.0,-1703.0,-1729.0,-1740.0,-1847.0,-1960.0,-1978.0,-1998.0,-2006.0,-2014.0,-2026.0,-2062.0,-2122.0,-2143.0,-2124.0,-2114.0,-2083.0,-2076.0,-2100.0,-2092.0,-2067.0,-2086.0,-2134.0,-2163.0,-2224.0,-2232.0,-2206.0,-2155.0,-2097.0,-2110.0,-2084.0,-2019.0,-1839.0,-1709.0,-1609.0,-1541.0,-1406.0,-1082.0,-1109.0,-1164.0,-1240.0,-1228.0,-1216.0,-1207.0,-1176.0,-1121.0,-1047.0,-999.0,-956.0,-908.0,-875.0,-844.0,-715.0,-693.0,-628.0,-575.0,-456.0,-391.0,-323.0,-289.0,-281.0,-277.0,-275.0,-285.0,-288.0,-295.0,-257.0,-221.0,-247.0,-251.0,-261.0,-268.0,-268.0,-270.0,-266.0,-252.0,-223.0,-219.0,-205.0,-196.0,-179.0,-173.0,-170.0,-168.0,-178.0,-225.0,-244.0,-245.0,-236.0,-235.0,-210.0,-162.0,-116.0,-111.0,-107.0,-100.0,-99.0,-91.0,-74.0,-62.0,-45.0,-44.0,-34.0,-31.0,-35.0,-40.0,-45.0,-37.0,-9.0,68.0,99.0,181.0,403.0,509.0,306.0,229.0,12.0,5.0,5.0,16.0,24.0,37.0,8.0,42.0,19.0,32.0,23.0,49.0,51.0,291.0,328.0,480.0,453.0,401.0,214.0,429.0,509.0
-236.0,-234.0,-238.0,-244.0,-260.0,-282.0,-294.0,-297.0,-299.0,-333.0,-384.0,-401.0,-400.0,-410.0,-405.0,-398.0,-385.0,-382.0,-415.0,-436.0,-432.0,-672.0,-761.0,-831.0,-886.0,-916.0,-916.0,-909.0,-896.0,-875.0,-857.0,-840.0,-818.0,-757.0,-737.0,-729.0,-765.0,-892.0,-931.0,-987.0,-1082.0,-1129.0,-1175.0,-1200.0,-1219.0,-1253.0,-1275.0,-1277.0,-1270.0,-1267.0,-1266.0,-1261.0,-1234.0,-1216.0,-1196.0,-1170.0,-1116.0,-1058.0,-1002.0,-971.0,-902.0,-858.0,-810.0,-774.0,-740.0,-772.0,-821.0,-867.0,-927.0,-954.0,-982.0,-1009.0,-1067.0,-1097.0,-1128.0,-1176.0,-1135.0,-1084.0,-1047.0,-1037.0,-978.0,-932.0,-888.0,-834.0,-698.0,-510.0,-413.0,-315.0,-219.0,-201.0,-163.0,-93.0,-86.0,-145.0,-209.0,-263.0,-359.0,-424.0,-476.0,-488.0,-495.0,-373.0,-183.0,-134.0,-70.0,-17.0,-9.0,-5.0,4.0,16.0,35.0,38.0,59.0,372.0,-10.0,147.0,61.0,-13.0,-12.0,170.0,42.0,178.0,102.0,373.0,516.0,13.0,-12.0,-10.0,386.0,447.0,432.0,435.0,706.0,835.0,658.0,425.0,523.0,569.0,589.0,615.0,715.0,659.0,597.0,566.0,780.0,687.0,709.0,778.0,821.0,820.0,792.0,725.0,636.0,579.0,509.0,483.0,559.0,428.0,493.0,443.0,331.0,336.0,387.0,420.0,479.0,497.0,590.0,663.0,662.0,687.0,648.0,683.0,601.0,610.0,638.0,535.0,460.0,445.0,480.0,482.0,665.0,656.0,770.0,849.0,831.0,802.0,783.0,608.0,484.0,352.0,344.0,414.0,438.0,621.0,674.0,653.0,774.0,890.0,873.0,934.0,757.0,727.0,819.0,921.0,759.0,641.0,403.0,819.0,587.0,906.0,575.0,447.0,558.0,413.0,462.0,244.0,263.0,181.0,305.0,13.0,175.0,361.0,264.0,192.0,158.0,57.0,21.0,-9.0,-10.0,-13.0,-24.0,-77.0,-104.0,-138.0,-171.0,-208.0,-220.0,-230.0,-239.0,-267.0,-762.0,-766.0,-795.0,-723.0,-662.0,-626.0,-617.0,-329.0,-296.0,-251.0,-219.0,-211.0,-198.0,-199.0,-204.0,-203.0,-226.0,-232.0,-258.0,-295.0,-263.0,-249.0,-222.0,-214.0,-204.0,-202.0,-222.0,-245.0,-237.0,-261.0,-272.0,-262.0,-260.0,-282.0,-327.0,-357.0,-366.0,-319.0,-283.0,-389.0,-487.0,-577.0,-627.0,-773.0,-849.0,-923.0,-1026.0,-1150.0,-1250.0,-1329.0,-1507.0,-1539.0,-1606.0,-1650.0,-1755.0,-1765.0,-1802.0,-1819.0,-1895.0,-1980.0,-2015.0,-2046.0,-2064.0,-2078.0,-2109.0,-2177.0,-2207.0,-2221.0,-2208.0,-2200.0,-2172.0,-2142.0,-2132.0,-2114.0,-2150.0,-2178.0,-2209.0,-2214.0,-2246.0,-2250.0,-2238.0,-2212.0,-2091.0,-2039.0,-2088.0,-1970.0,-1840.0,-1769.0,-1706.0,-1534.0,-1136.0,-1054.0,-1122.0,-1254.0,-1239.0,-1254.0,-1220.0,-1186.0,-1183.0,-1115.0,-1051.0,-1007.0,-957.0,-926.0,-887.0,-832.0,-735.0,-709.0,-652.0,-590.0,-486.0,-423.0,-339.0,-287.0,-303.0,-301.0,-285.0,-278.0,-289.0,-289.0,-267.0,-239.0,-262.0,-275.0,-278.0,-273.0,-275.0,-271.0,-263.0,-251.0,-225.0,-212.0,-203.0,-203.0,-191.0,-199.0,-172.0,-168.0,-210.0,-235.0,-246.0,-249.0,-239.0,-237.0,-217.0,-147.0,-118.0,-116.0,-106.0,-103.0,-97.0,-88.0,-79.0,-69.0,-51.0,-39.0,-37.0,-33.0,-35.0,-40.0,-40.0,-37.0,24.0,57.0,77.0,178.0,520.0,429.0,262.0,238.0,3.0,2.0,8.0,11.0,11.0,14.0,12.0,6.0,26.0,19.0,18.0,25.0,104.0,120.0,124.0,100.0,102.0,130.0,216.0,555.0,875.0
-238.0,-242.0,-247.0,-254.0,-264.0,-287.0,-298.0,-295.0,-308.0,-361.0,-395.0,-404.0,-408.0,-411.0,-406.0,-394.0,-390.0,-377.0,-474.0,-486.0,-500.0,-745.0,-837.0,-847.0,-898.0,-916.0,-916.0,-930.0,-923.0,-896.0,-879.0,-854.0,-824.0,-770.0,-750.0,-758.0,-794.0,-910.0,-975.0,-978.0,-1109.0,-1139.0,-1188.0,-1213.0,-1296.0,-1316.0,-1320.0,-1328.0,-1323.0,-1317.0,-1314.0,-1309.0,-1285.0,-1274.0,-1257.0,-1227.0,-1172.0,-1131.0,-1099.0,-1032.0,-937.0,-898.0,-857.0,-823.0,-776.0,-796.0,-837.0,-881.0,-937.0,-968.0,-991.0,-1013.0,-1077.0,-1095.0,-1123.0,-1168.0,-1123.0,-1100.0,-1075.0,-1055.0,-998.0,-945.0,-924.0,-886.0,-775.0,-721.0,-673.0,-501.0,-329.0,-184.0,-168.0,-186.0,-214.0,-271.0,-313.0,-346.0,-412.0,-473.0,-483.0,-536.0,-442.0,-222.0,-178.0,-52.0,-46.0,-16.0,-6.0,2.0,17.0,8.0,33.0,33.0,73.0,181.0,-11.0,-2.0,276.0,108.0,18.0,169.0,527.0,101.0,495.0,600.0,775.0,-9.0,414.0,534.0,176.0,291.0,514.0,200.0,867.0,754.0,556.0,458.0,533.0,575.0,630.0,619.0,735.0,653.0,595.0,603.0,573.0,654.0,697.0,749.0,801.0,809.0,783.0,725.0,644.0,592.0,505.0,450.0,443.0,369.0,342.0,364.0,336.0,335.0,383.0,470.0,544.0,582.0,602.0,655.0,657.0,642.0,604.0,603.0,501.0,506.0,616.0,728.0,649.0,562.0,714.0,425.0,505.0,732.0,742.0,783.0,802.0,845.0,843.0,694.0,529.0,365.0,359.0,381.0,528.0,639.0,803.0,587.0,582.0,616.0,743.0,1016.0,730.0,582.0,815.0,895.0,822.0,609.0,703.0,586.0,713.0,730.0,599.0,383.0,358.0,215.0,314.0,-763.0,-764.0,58.0,60.0,-578.0,74.0,322.0,48.0,24.0,59.0,9.0,10.0,70.0,-5.0,-20.0,-43.0,-107.0,-140.0,-176.0,-200.0,-216.0,-230.0,-241.0,-253.0,-282.0,-760.0,-763.0,-797.0,-719.0,-645.0,-631.0,-622.0,-422.0,-431.0,-395.0,-299.0,-215.0,-204.0,-225.0,-209.0,-232.0,-255.0,-226.0,-260.0,-340.0,-275.0,-247.0,-220.0,-199.0,-204.0,-209.0,-219.0,-239.0,-256.0,-277.0,-278.0,-311.0,-286.0,-282.0,-324.0,-349.0,-325.0,-363.0,-410.0,-602.0,-631.0,-691.0,-713.0,-849.0,-902.0,-966.0,-1047.0,-1207.0,-1283.0,-1342.0,-1518.0,-1535.0,-1610.0,-1660.0,-1730.0,-1753.0,-1811.0,-1827.0,-1964.0,-1979.0,-1999.0,-2060.0,-2119.0,-2144.0,-2178.0,-2223.0,-2244.0,-2247.0,-2245.0,-2240.0,-2216.0,-2192.0,-2189.0,-2174.0,-2212.0,-2225.0,-2240.0,-2248.0,-2272.0,-2280.0,-2281.0,-2268.0,-2184.0,-2078.0,-2160.0,-2057.0,-1868.0,-1811.0,-1799.0,-1606.0,-1089.0,-1040.0,-1157.0,-1319.0,-1230.0,-1214.0,-1240.0,-1171.0,-1193.0,-1107.0,-1052.0,-1038.0,-968.0,-951.0,-905.0,-847.0,-692.0,-710.0,-664.0,-617.0,-516.0,-449.0,-374.0,-295.0,-262.0,-272.0,-277.0,-286.0,-313.0,-266.0,-266.0,-269.0,-291.0,-294.0,-306.0,-282.0,-272.0,-268.0,-267.0,-251.0,-239.0,-225.0,-220.0,-214.0,-180.0,-187.0,-172.0,-180.0,-222.0,-243.0,-255.0,-257.0,-259.0,-265.0,-179.0,-131.0,-125.0,-115.0,-110.0,-106.0,-103.0,-94.0,-85.0,-78.0,-40.0,-22.0,11.0,-26.0,-37.0,-37.0,-10.0,20.0,82.0,135.0,158.0,517.0,482.0,402.0,188.0,149.0,6.0,3.0,3.0,6.0,3.0,10.0,9.0,4.0,5.0,7.0,8.0,28.0,29.0,32.0,39.0,72.0,263.0,749.0,1216.0,1183.0,892.0
-246.0,-258.0,-260.0,-265.0,-268.0,-299.0,-304.0,-317.0,-335.0,-379.0,-392.0,-404.0,-415.0,-416.0,-414.0,-446.0,-413.0,-448.0,-486.0,-516.0,-594.0,-832.0,-890.0,-959.0,-956.0,-993.0,-993.0,-984.0,-965.0,-926.0,-909.0,-896.0,-877.0,-810.0,-790.0,-786.0,-851.0,-994.0,-1001.0,-1033.0,-1164.0,-1181.0,-1239.0,-1278.0,-1366.0,-1401.0,-1422.0,-1465.0,-1420.0,-1412.0,-1411.0,-1410.0,-1393.0,-1387.0,-1371.0,-1334.0,-1263.0,-1247.0,-1199.0,-1161.0,-1058.0,-999.0,-960.0,-945.0,-891.0,-876.0,-898.0,-937.0,-994.0,-1004.0,-1027.0,-1047.0,-1086.0,-1123.0,-1162.0,-1194.0,-1174.0,-1163.0,-1114.0,-1082.0,-1024.0,-1000.0,-971.0,-944.0,-906.0,-872.0,-750.0,-640.0,-596.0,-266.0,-272.0,-284.0,-314.0,-327.0,-339.0,-361.0,-452.0,-480.0,-387.0,-367.0,-203.0,-174.0,-110.0,-99.0,-42.0,-20.0,-9.0,9.0,12.0,30.0,26.0,79.0,-12.0,12.0,4.0,453.0,41.0,655.0,467.0,226.0,-11.0,349.0,0.0,180.0,346.0,66.0,-11.0,735.0,498.0,593.0,720.0,645.0,848.0,1017.0,769.0,686.0,636.0,754.0,830.0,626.0,775.0,725.0,663.0,588.0,772.0,736.0,733.0,754.0,848.0,853.0,794.0,747.0,680.0,643.0,596.0,549.0,444.0,381.0,389.0,427.0,462.0,396.0,423.0,485.0,474.0,420.0,464.0,601.0,634.0,646.0,659.0,561.0,530.0,419.0,725.0,1011.0,1018.0,895.0,580.0,665.0,563.0,529.0,535.0,780.0,793.0,795.0,1051.0,740.0,597.0,520.0,491.0,488.0,556.0,589.0,667.0,796.0,791.0,752.0,762.0,842.0,757.0,754.0,911.0,1130.0,1245.0,1224.0,821.0,867.0,527.0,620.0,757.0,582.0,324.0,170.0,55.0,35.0,-744.0,-745.0,-745.0,-747.0,-772.0,2.0,-765.0,-602.0,-618.0,2.0,-3.0,20.0,-6.0,-38.0,-77.0,-139.0,-182.0,-202.0,-213.0,-246.0,-261.0,-273.0,-281.0,-305.0,-754.0,-758.0,-842.0,-744.0,-653.0,-611.0,-588.0,-498.0,-420.0,-430.0,-277.0,-254.0,-230.0,-231.0,-237.0,-260.0,-305.0,-348.0,-338.0,-365.0,-349.0,-323.0,-200.0,-186.0,-200.0,-211.0,-225.0,-259.0,-274.0,-275.0,-304.0,-296.0,-372.0,-354.0,-345.0,-571.0,-639.0,-699.0,-769.0,-844.0,-831.0,-862.0,-869.0,-947.0,-993.0,-1055.0,-1102.0,-1256.0,-1386.0,-1470.0,-1570.0,-1611.0,-1635.0,-1656.0,-1713.0,-1776.0,-1879.0,-1972.0,-1966.0,-2015.0,-2061.0,-2082.0,-2143.0,-2195.0,-2219.0,-2242.0,-2277.0,-2281.0,-2280.0,-2278.0,-2273.0,-2264.0,-2262.0,-2265.0,-2279.0,-2286.0,-2292.0,-2297.0,-2309.0,-2312.0,-2310.0,-2306.0,-2213.0,-2137.0,-2109.0,-2051.0,-1841.0,-1728.0,-1656.0,-1801.0,-1103.0,-1090.0,-1231.0,-1368.0,-1286.0,-1280.0,-1264.0,-1250.0,-1196.0,-1160.0,-1111.0,-1062.0,-998.0,-965.0,-892.0,-879.0,-795.0,-754.0,-726.0,-678.0,-590.0,-502.0,-411.0,-344.0,-317.0,-325.0,-324.0,-326.0,-305.0,-305.0,-303.0,-307.0,-310.0,-330.0,-337.0,-342.0,-268.0,-251.0,-245.0,-233.0,-248.0,-251.0,-242.0,-239.0,-180.0,-175.0,-185.0,-203.0,-251.0,-261.0,-271.0,-283.0,-281.0,-251.0,-155.0,-134.0,-119.0,-120.0,-117.0,-114.0,-112.0,-101.0,-99.0,-93.0,-65.0,-45.0,-1.0,35.0,14.0,36.0,45.0,135.0,251.0,252.0,195.0,394.0,29.0,32.0,59.0,17.0,-68.0,-65.0,-65.0,-62.0,-60.0,-55.0,-42.0,-15.0,0.0,4.0,2.0,12.0,15.0,21.0,20.0,434.0,526.0,440.0,506.0,446.0,301.0
-252.0,-261.0,-262.0,-268.0,-273.0,-304.0,-318.0,-330.0,-340.0,-384.0,-393.0,-408.0,-421.0,-428.0,-462.0,-465.0,-384.0,-421.0,-544.0,-545.0,-688.0,-866.0,-939.0,-1000.0,-1005.0,-1011.0,-1017.0,-1010.0,-997.0,-946.0,-910.0,-909.0,-885.0,-824.0,-803.0,-801.0,-860.0,-976.0,-1015.0,-1060.0,-1214.0,-1216.0,-1244.0,-1299.0,-1391.0,-1442.0,-1458.0,-1479.0,-1475.0,-1474.0,-1465.0,-1463.0,-1449.0,-1441.0,-1424.0,-1398.0,-1325.0,-1262.0,-1219.0,-1206.0,-1113.0,-1031.0,-1003.0,-954.0,-918.0,-918.0,-949.0,-1000.0,-1038.0,-1046.0,-1052.0,-1065.0,-1106.0,-1136.0,-1174.0,-1225.0,-1192.0,-1174.0,-1119.0,-1098.0,-1053.0,-1018.0,-998.0,-986.0,-954.0,-905.0,-796.0,-735.0,-569.0,-281.0,-288.0,-298.0,-310.0,-320.0,-337.0,-365.0,-431.0,-392.0,-365.0,-89.0,-250.0,-145.0,-86.0,-119.0,-42.0,-13.0,12.0,5.0,28.0,19.0,12.0,66.0,1.0,131.0,165.0,401.0,22.0,774.0,68.0,65.0,-3.0,625.0,676.0,768.0,511.0,61.0,-11.0,607.0,953.0,1035.0,847.0,647.0,685.0,689.0,745.0,726.0,748.0,879.0,814.0,789.0,807.0,781.0,736.0,716.0,719.0,752.0,759.0,766.0,805.0,807.0,770.0,744.0,697.0,677.0,657.0,655.0,498.0,391.0,383.0,410.0,470.0,469.0,425.0,442.0,456.0,461.0,468.0,598.0,636.0,673.0,743.0,864.0,736.0,671.0,762.0,1007.0,1065.0,981.0,874.0,781.0,794.0,556.0,511.0,582.0,691.0,769.0,817.0,754.0,752.0,737.0,588.0,522.0,553.0,520.0,453.0,728.0,836.0,720.0,673.0,897.0,858.0,825.0,947.0,1144.0,1367.0,1420.0,1114.0,1026.0,767.0,691.0,791.0,447.0,260.0,135.0,-1.0,215.0,-734.0,-735.0,-736.0,-737.0,-738.0,-743.0,-782.0,-763.0,-750.0,-743.0,-610.0,8.0,-23.0,-72.0,-112.0,-160.0,-187.0,-203.0,-220.0,-264.0,-282.0,-298.0,-317.0,-318.0,-752.0,-749.0,-722.0,-704.0,-650.0,-615.0,-589.0,-491.0,-387.0,-326.0,-283.0,-249.0,-256.0,-252.0,-251.0,-273.0,-310.0,-352.0,-394.0,-456.0,-472.0,-423.0,-309.0,-170.0,-184.0,-206.0,-232.0,-251.0,-256.0,-267.0,-285.0,-320.0,-340.0,-330.0,-585.0,-764.0,-828.0,-870.0,-893.0,-914.0,-914.0,-925.0,-936.0,-974.0,-1026.0,-1068.0,-1157.0,-1368.0,-1410.0,-1501.0,-1597.0,-1621.0,-1641.0,-1659.0,-1752.0,-1831.0,-1925.0,-2006.0,-2010.0,-2047.0,-2094.0,-2126.0,-2178.0,-2198.0,-2234.0,-2259.0,-2298.0,-2303.0,-2300.0,-2300.0,-2303.0,-2302.0,-2304.0,-2305.0,-2311.0,-2313.0,-2317.0,-2319.0,-2321.0,-2319.0,-2313.0,-2301.0,-2271.0,-2172.0,-2129.0,-2066.0,-1853.0,-1759.0,-1725.0,-1749.0,-1485.0,-1325.0,-1339.0,-1384.0,-1298.0,-1301.0,-1291.0,-1275.0,-1207.0,-1167.0,-1117.0,-1067.0,-1024.0,-1015.0,-932.0,-851.0,-798.0,-779.0,-749.0,-708.0,-604.0,-524.0,-425.0,-350.0,-331.0,-331.0,-330.0,-325.0,-310.0,-315.0,-308.0,-317.0,-318.0,-332.0,-339.0,-335.0,-283.0,-259.0,-261.0,-255.0,-253.0,-255.0,-250.0,-238.0,-176.0,-186.0,-198.0,-214.0,-258.0,-269.0,-284.0,-295.0,-267.0,-227.0,-155.0,-140.0,-121.0,-123.0,-117.0,-115.0,-113.0,-107.0,-100.0,-99.0,-83.0,-64.0,3.0,29.0,20.0,16.0,42.0,157.0,226.0,159.0,295.0,76.0,-30.0,12.0,-42.0,-76.0,-75.0,-73.0,-70.0,-69.0,-68.0,-66.0,-61.0,-47.0,-34.0,-20.0,0.0,4.0,10.0,11.0,12.0,14.0,17.0,11.0,171.0,18.0,18.0
-259.0,-267.0,-270.0,-275.0,-278.0,-322.0,-344.0,-343.0,-351.0,-393.0,-399.0,-410.0,-421.0,-421.0,-420.0,-405.0,-384.0,-560.0,-538.0,-636.0,-784.0,-829.0,-873.0,-912.0,-996.0,-1044.0,-1046.0,-1035.0,-1015.0,-974.0,-950.0,-930.0,-904.0,-831.0,-820.0,-824.0,-889.0,-997.0,-1059.0,-1064.0,-1196.0,-1247.0,-1298.0,-1342.0,-1438.0,-1453.0,-1485.0,-1518.0,-1538.0,-1532.0,-1518.0,-1512.0,-1500.0,-1501.0,-1469.0,-1448.0,-1354.0,-1295.0,-1297.0,-1220.0,-1166.0,-1117.0,-1077.0,-998.0,-944.0,-952.0,-981.0,-1025.0,-1075.0,-1080.0,-1084.0,-1106.0,-1143.0,-1182.0,-1235.0,-1229.0,-1174.0,-1175.0,-1147.0,-1109.0,-1073.0,-1042.0,-1030.0,-1006.0,-1005.0,-937.0,-834.0,-835.0,-628.0,-286.0,-282.0,-290.0,-302.0,-332.0,-348.0,-363.0,-390.0,-314.0,-60.0,-38.0,-213.0,-134.0,-104.0,-59.0,-46.0,-11.0,-1.0,14.0,30.0,65.0,47.0,-5.0,-10.0,5.0,261.0,-10.0,882.0,147.0,38.0,-1.0,8.0,229.0,1173.0,1152.0,56.0,29.0,-11.0,261.0,736.0,775.0,670.0,711.0,549.0,918.0,908.0,723.0,784.0,883.0,763.0,761.0,769.0,778.0,812.0,983.0,798.0,782.0,779.0,760.0,734.0,730.0,731.0,727.0,702.0,699.0,704.0,745.0,540.0,404.0,385.0,403.0,459.0,458.0,442.0,438.0,451.0,462.0,498.0,611.0,634.0,681.0,780.0,943.0,864.0,814.0,740.0,930.0,1007.0,968.0,893.0,876.0,828.0,812.0,745.0,655.0,626.0,634.0,710.0,786.0,791.0,785.0,744.0,615.0,603.0,532.0,347.0,632.0,616.0,619.0,624.0,847.0,990.0,859.0,825.0,1146.0,1312.0,1584.0,1278.0,855.0,648.0,908.0,743.0,561.0,433.0,314.0,160.0,-7.0,-611.0,-725.0,-726.0,-727.0,-728.0,-728.0,-729.0,-785.0,-772.0,-763.0,-757.0,-734.0,-632.0,-647.0,-136.0,-176.0,-193.0,-206.0,-229.0,-284.0,-315.0,-341.0,-399.0,-436.0,-749.0,-729.0,-795.0,-624.0,-609.0,-595.0,-549.0,-439.0,-316.0,-270.0,-274.0,-265.0,-301.0,-263.0,-262.0,-304.0,-345.0,-379.0,-393.0,-489.0,-514.0,-469.0,-389.0,-184.0,-185.0,-203.0,-229.0,-241.0,-246.0,-257.0,-274.0,-287.0,-295.0,-551.0,-811.0,-897.0,-938.0,-972.0,-989.0,-986.0,-972.0,-975.0,-980.0,-1009.0,-1044.0,-1106.0,-1176.0,-1351.0,-1473.0,-1564.0,-1617.0,-1632.0,-1646.0,-1665.0,-1786.0,-1868.0,-1948.0,-2014.0,-2055.0,-2088.0,-2130.0,-2170.0,-2209.0,-2199.0,-2266.0,-2285.0,-2326.0,-2333.0,-2337.0,-2342.0,-2342.0,-2342.0,-2339.0,-2337.0,-2339.0,-2340.0,-2342.0,-2342.0,-2336.0,-2331.0,-2323.0,-2314.0,-2273.0,-2173.0,-2140.0,-2083.0,-1894.0,-1814.0,-1796.0,-1793.0,-1562.0,-1431.0,-1382.0,-1396.0,-1325.0,-1304.0,-1294.0,-1257.0,-1207.0,-1176.0,-1136.0,-1087.0,-1078.0,-1052.0,-965.0,-893.0,-812.0,-807.0,-778.0,-738.0,-620.0,-545.0,-456.0,-340.0,-336.0,-331.0,-328.0,-317.0,-313.0,-315.0,-313.0,-324.0,-337.0,-341.0,-346.0,-330.0,-291.0,-284.0,-284.0,-271.0,-261.0,-259.0,-250.0,-231.0,-190.0,-197.0,-211.0,-221.0,-264.0,-281.0,-305.0,-309.0,-250.0,-201.0,-153.0,-144.0,-139.0,-128.0,-115.0,-122.0,-116.0,-110.0,-108.0,-104.0,-95.0,-82.0,-50.0,1.0,49.0,33.0,82.0,117.0,87.0,98.0,45.0,-31.0,-64.0,-76.0,-92.0,-94.0,-82.0,-78.0,-76.0,-71.0,-70.0,-67.0,-64.0,-59.0,-52.0,-45.0,-30.0,-3.0,2.0,5.0,5.0,4.0,-3.0,-9.0,-17.0,-19.0,-15.0
-266.0,-274.0,-277.0,-284.0,-295.0,-361.0,-359.0,-364.0,-373.0,-400.0,-405.0,-416.0,-432.0,-454.0,-491.0,-449.0,-431.0,-562.0,-630.0,-761.0,-848.0,-980.0,-945.0,-926.0,-1020.0,-1069.0,-1066.0,-1053.0,-1035.0,-986.0,-950.0,-912.0,-907.0,-847.0,-841.0,-879.0,-924.0,-1011.0,-1058.0,-1076.0,-1195.0,-1252.0,-1318.0,-1383.0,-1458.0,-1492.0,-1518.0,-1535.0,-1588.0,-1603.0,-1572.0,-1564.0,-1548.0,-1557.0,-1523.0,-1500.0,-1465.0,-1366.0,-1288.0,-1276.0,-1217.0,-1171.0,-1137.0,-1074.0,-981.0,-989.0,-1020.0,-1056.0,-1099.0,-1118.0,-1120.0,-1133.0,-1153.0,-1195.0,-1259.0,-1234.0,-1185.0,-1178.0,-1170.0,-1143.0,-1096.0,-1079.0,-1059.0,-1028.0,-1019.0,-997.0,-921.0,-923.0,-695.0,-276.0,-270.0,-273.0,-297.0,-318.0,-327.0,-346.0,-292.0,-114.0,-48.0,-39.0,-183.0,-117.0,-115.0,-90.0,-41.0,-5.0,-2.0,-1.0,38.0,57.0,12.0,-108.0,441.0,70.0,-10.0,50.0,200.0,64.0,236.0,679.0,342.0,7.0,2.0,-1.0,19.0,111.0,472.0,-12.0,370.0,739.0,542.0,255.0,694.0,865.0,810.0,727.0,738.0,763.0,717.0,700.0,692.0,658.0,711.0,737.0,850.0,815.0,789.0,773.0,705.0,696.0,712.0,722.0,697.0,683.0,673.0,643.0,513.0,425.0,393.0,397.0,440.0,445.0,442.0,470.0,500.0,537.0,586.0,607.0,630.0,673.0,745.0,868.0,982.0,946.0,787.0,928.0,895.0,997.0,1067.0,934.0,969.0,863.0,791.0,687.0,605.0,475.0,624.0,820.0,864.0,940.0,881.0,768.0,726.0,638.0,505.0,633.0,619.0,577.0,498.0,622.0,893.0,812.0,754.0,1125.0,1202.0,1251.0,1643.0,947.0,795.0,973.0,911.0,969.0,755.0,570.0,427.0,-10.0,-10.0,27.0,65.0,-717.0,-718.0,-719.0,-719.0,-726.0,-765.0,-785.0,-779.0,-754.0,-741.0,-729.0,-635.0,-664.0,-204.0,-218.0,-244.0,-309.0,-358.0,-416.0,-518.0,-601.0,-736.0,-802.0,-757.0,-562.0,-549.0,-534.0,-497.0,-387.0,-296.0,-247.0,-275.0,-286.0,-295.0,-292.0,-303.0,-338.0,-373.0,-402.0,-430.0,-504.0,-544.0,-558.0,-456.0,-319.0,-193.0,-202.0,-206.0,-218.0,-221.0,-239.0,-269.0,-283.0,-388.0,-627.0,-776.0,-972.0,-1007.0,-1050.0,-1054.0,-1058.0,-1040.0,-1022.0,-1005.0,-1037.0,-1079.0,-1131.0,-1193.0,-1411.0,-1534.0,-1598.0,-1626.0,-1637.0,-1652.0,-1672.0,-1813.0,-1917.0,-2001.0,-2036.0,-2084.0,-2119.0,-2158.0,-2189.0,-2233.0,-2243.0,-2249.0,-2286.0,-2354.0,-2367.0,-2369.0,-2379.0,-2378.0,-2378.0,-2376.0,-2367.0,-2366.0,-2369.0,-2372.0,-2366.0,-2352.0,-2348.0,-2342.0,-2333.0,-2263.0,-2180.0,-2136.0,-2083.0,-1915.0,-1837.0,-1898.0,-1755.0,-1581.0,-1475.0,-1427.0,-1426.0,-1356.0,-1319.0,-1296.0,-1260.0,-1225.0,-1195.0,-1154.0,-1112.0,-1077.0,-1035.0,-960.0,-909.0,-846.0,-835.0,-808.0,-770.0,-642.0,-574.0,-474.0,-432.0,-341.0,-329.0,-320.0,-314.0,-319.0,-320.0,-324.0,-328.0,-346.0,-347.0,-338.0,-334.0,-303.0,-300.0,-295.0,-282.0,-263.0,-248.0,-232.0,-193.0,-190.0,-192.0,-208.0,-231.0,-272.0,-287.0,-329.0,-328.0,-210.0,-193.0,-152.0,-139.0,-139.0,-135.0,-134.0,-128.0,-119.0,-118.0,-114.0,-112.0,-103.0,-90.0,-72.0,4.0,70.0,35.0,51.0,7.0,-15.0,-59.0,-78.0,-95.0,-100.0,-113.0,-114.0,-105.0,-91.0,-85.0,-69.0,-74.0,-75.0,-73.0,-72.0,-69.0,-63.0,-60.0,-53.0,-28.0,-16.0,-6.0,2.0,-31.0,-60.0,-78.0,-79.0,-69.0,-67.0
-270.0,-294.0,-298.0,-318.0,-358.0,-383.0,-392.0,-402.0,-420.0,-444.0,-466.0,-492.0,-489.0,-512.0,-545.0,-586.0,-615.0,-761.0,-809.0,-880.0,-966.0,-1051.0,-1049.0,-1071.0,-1057.0,-1102.0,-1099.0,-1070.0,-1045.0,-996.0,-971.0,-942.0,-918.0,-863.0,-859.0,-893.0,-965.0,-1047.0,-1053.0,-1105.0,-1254.0,-1300.0,-1356.0,-1423.0,-1503.0,-1544.0,-1566.0,-1534.0,-1660.0,-1675.0,-1687.0,-1707.0,-1679.0,-1649.0,-1588.0,-1604.0,-1468.0,-1408.0,-1431.0,-1336.0,-1249.0,-1206.0,-1199.0,-1157.0,-1091.0,-1057.0,-1098.0,-1152.0,-1197.0,-1209.0,-1206.0,-1230.0,-1238.0,-1313.0,-1300.0,-1253.0,-1198.0,-1183.0,-1153.0,-1170.0,-1157.0,-1138.0,-1123.0,-1088.0,-1103.0,-1047.0,-1056.0,-1055.0,-988.0,-621.0,-255.0,-260.0,-268.0,-267.0,-278.0,-278.0,-97.0,-75.0,-43.0,-36.0,-134.0,-212.0,-122.0,-117.0,-29.0,-13.0,-2.0,1.0,-3.0,-394.0,-285.0,-8.0,99.0,48.0,179.0,102.0,6.0,1111.0,275.0,1096.0,1059.0,474.0,218.0,20.0,595.0,175.0,724.0,614.0,-10.0,3.0,372.0,829.0,709.0,722.0,442.0,544.0,869.0,660.0,675.0,775.0,928.0,770.0,781.0,715.0,807.0,809.0,795.0,790.0,867.0,853.0,757.0,707.0,660.0,625.0,591.0,550.0,463.0,411.0,389.0,389.0,408.0,468.0,517.0,574.0,614.0,643.0,655.0,666.0,677.0,717.0,724.0,875.0,860.0,870.0,866.0,954.0,940.0,918.0,914.0,979.0,907.0,852.0,843.0,687.0,755.0,858.0,818.0,782.0,832.0,923.0,992.0,963.0,1021.0,1091.0,896.0,707.0,828.0,994.0,908.0,546.0,676.0,675.0,589.0,709.0,654.0,843.0,710.0,856.0,695.0,880.0,965.0,1190.0,885.0,851.0,375.0,-51.0,-51.0,39.0,62.0,82.0,-698.0,-699.0,-700.0,-701.0,-702.0,-703.0,-703.0,-758.0,-786.0,-774.0,-761.0,-737.0,-724.0,-714.0,-660.0,-694.0,-382.0,-434.0,-520.0,-730.0,-792.0,-752.0,-608.0,-574.0,-576.0,-503.0,-451.0,-377.0,-341.0,-330.0,-325.0,-333.0,-356.0,-374.0,-379.0,-452.0,-498.0,-460.0,-534.0,-599.0,-601.0,-602.0,-570.0,-448.0,-424.0,-395.0,-352.0,-336.0,-332.0,-328.0,-339.0,-330.0,-334.0,-446.0,-707.0,-1059.0,-1119.0,-1128.0,-1148.0,-1151.0,-1126.0,-1110.0,-1097.0,-1142.0,-1189.0,-1246.0,-1281.0,-1391.0,-1453.0,-1501.0,-1604.0,-1642.0,-1678.0,-1735.0,-1868.0,-1963.0,-2035.0,-2060.0,-2112.0,-2151.0,-2193.0,-2222.0,-2273.0,-2299.0,-2317.0,-2330.0,-2412.0,-2417.0,-2438.0,-2449.0,-2450.0,-2447.0,-2429.0,-2403.0,-2414.0,-2433.0,-2420.0,-2398.0,-2380.0,-2381.0,-2391.0,-2385.0,-2286.0,-2231.0,-2175.0,-2147.0,-1922.0,-1794.0,-1793.0,-1751.0,-1629.0,-1536.0,-1490.0,-1447.0,-1389.0,-1366.0,-1340.0,-1319.0,-1299.0,-1257.0,-1190.0,-1202.0,-1021.0,-964.0,-906.0,-909.0,-900.0,-873.0,-842.0,-815.0,-710.0,-642.0,-573.0,-497.0,-359.0,-344.0,-330.0,-327.0,-330.0,-331.0,-333.0,-332.0,-348.0,-362.0,-342.0,-330.0,-312.0,-316.0,-292.0,-262.0,-226.0,-209.0,-196.0,-194.0,-199.0,-214.0,-236.0,-264.0,-290.0,-343.0,-369.0,-368.0,-193.0,-182.0,-146.0,-145.0,-141.0,-135.0,-137.0,-137.0,-130.0,-129.0,-127.0,-123.0,-109.0,-128.0,-153.0,-62.0,-18.0,-72.0,-102.0,-106.0,-111.0,-118.0,-101.0,-129.0,-141.0,-140.0,-136.0,-110.0,-86.0,-85.0,-86.0,-81.0,-80.0,-79.0,-78.0,-78.0,-77.0,-76.0,-74.0,-66.0,-65.0,-50.0,-39.0,-92.0,-141.0,-148.0,-142.0,-114.0,-116.0
-280.0,-293.0,-307.0,-339.0,-393.0,-398.0,-409.0,-426.0,-466.0,-539.0,-547.0,-558.0,-551.0,-533.0,-569.0,-616.0,-658.0,-807.0,-858.0,-958.0,-1011.0,-1099.0,-1115.0,-1074.0,-1066.0,-1012.0,-1008.0,-1024.0,-1019.0,-992.0,-969.0,-942.0,-919.0,-862.0,-855.0,-901.0,-979.0,-1036.0,-1080.0,-1124.0,-1239.0,-1310.0,-1383.0,-1456.0,-1541.0,-1582.0,-1603.0,-1657.0,-1694.0,-1704.0,-1725.0,-1729.0,-1708.0,-1721.0,-1668.0,-1634.0,-1513.0,-1450.0,-1422.0,-1412.0,-1305.0,-1226.0,-1195.0,-1162.0,-1090.0,-1086.0,-1136.0,-1198.0,-1224.0,-1257.0,-1318.0,-1337.0,-1342.0,-1329.0,-1230.0,-1186.0,-1155.0,-1149.0,-1170.0,-1167.0,-1125.0,-1179.0,-1150.0,-1073.0,-1117.0,-1140.0,-1147.0,-1133.0,-889.0,-745.0,-299.0,-248.0,-259.0,-251.0,-252.0,-232.0,-85.0,-61.0,-51.0,-40.0,-83.0,-139.0,-96.0,-76.0,-28.0,-8.0,-2.0,-2.0,-240.0,2.0,70.0,148.0,8.0,310.0,382.0,207.0,448.0,483.0,424.0,792.0,957.0,396.0,92.0,246.0,420.0,221.0,602.0,750.0,68.0,296.0,637.0,561.0,593.0,739.0,662.0,712.0,811.0,756.0,782.0,1223.0,985.0,782.0,872.0,731.0,770.0,804.0,777.0,777.0,783.0,763.0,717.0,681.0,633.0,603.0,572.0,549.0,458.0,387.0,381.0,385.0,407.0,496.0,534.0,604.0,651.0,687.0,694.0,691.0,687.0,710.0,707.0,768.0,788.0,822.0,846.0,874.0,865.0,787.0,691.0,988.0,936.0,922.0,933.0,860.0,757.0,788.0,804.0,747.0,672.0,824.0,885.0,956.0,1047.0,1091.0,980.0,820.0,858.0,916.0,885.0,911.0,745.0,626.0,571.0,671.0,1006.0,1042.0,913.0,1066.0,950.0,938.0,622.0,658.0,865.0,847.0,555.0,190.0,-38.0,-51.0,33.0,192.0,0.0,-689.0,-690.0,-691.0,-692.0,-693.0,-693.0,-695.0,-730.0,-769.0,-784.0,-759.0,-747.0,-734.0,-722.0,-665.0,-684.0,-705.0,-710.0,-664.0,-733.0,-724.0,-640.0,-582.0,-580.0,-513.0,-429.0,-381.0,-361.0,-350.0,-338.0,-354.0,-369.0,-398.0,-450.0,-465.0,-644.0,-601.0,-606.0,-620.0,-611.0,-623.0,-616.0,-500.0,-485.0,-438.0,-415.0,-401.0,-392.0,-380.0,-381.0,-368.0,-357.0,-381.0,-731.0,-1110.0,-1164.0,-1182.0,-1175.0,-1168.0,-1179.0,-1168.0,-1172.0,-1186.0,-1211.0,-1279.0,-1330.0,-1417.0,-1463.0,-1484.0,-1613.0,-1653.0,-1691.0,-1748.0,-1878.0,-1955.0,-2017.0,-2053.0,-2117.0,-2170.0,-2209.0,-2235.0,-2290.0,-2323.0,-2353.0,-2391.0,-2389.0,-2418.0,-2448.0,-2467.0,-2489.0,-2482.0,-2454.0,-2429.0,-2434.0,-2457.0,-2444.0,-2420.0,-2384.0,-2391.0,-2406.0,-2378.0,-2291.0,-2255.0,-2209.0,-2123.0,-1960.0,-1823.0,-1701.0,-1682.0,-1638.0,-1574.0,-1514.0,-1429.0,-1398.0,-1384.0,-1365.0,-1347.0,-1303.0,-1279.0,-1217.0,-1246.0,-1088.0,-1006.0,-968.0,-955.0,-942.0,-912.0,-889.0,-859.0,-728.0,-681.0,-630.0,-564.0,-414.0,-359.0,-343.0,-336.0,-332.0,-335.0,-335.0,-338.0,-357.0,-360.0,-351.0,-322.0,-299.0,-287.0,-273.0,-266.0,-207.0,-194.0,-203.0,-195.0,-212.0,-234.0,-258.0,-274.0,-317.0,-364.0,-382.0,-382.0,-192.0,-169.0,-147.0,-145.0,-146.0,-141.0,-140.0,-142.0,-137.0,-135.0,-135.0,-132.0,-149.0,-141.0,-177.0,-69.0,-125.0,-121.0,-120.0,-112.0,-120.0,-132.0,-142.0,-152.0,-143.0,-138.0,-105.0,-95.0,-90.0,-89.0,-88.0,-83.0,-83.0,-81.0,-82.0,-81.0,-80.0,-81.0,-74.0,-68.0,-69.0,-8.0,-20.0,-129.0,-158.0,-181.0,-174.0,-156.0,-418.0
-291.0,-312.0,-328.0,-377.0,-396.0,-439.0,-487.0,-512.0,-545.0,-627.0,-630.0,-591.0,-595.0,-602.0,-602.0,-659.0,-717.0,-867.0,-932.0,-985.0,-1059.0,-1085.0,-1133.0,-1173.0,-1198.0,-1085.0,-1041.0,-1021.0,-1011.0,-990.0,-968.0,-945.0,-918.0,-870.0,-883.0,-949.0,-1009.0,-1080.0,-1138.0,-1140.0,-1244.0,-1346.0,-1445.0,-1482.0,-1578.0,-1575.0,-1648.0,-1642.0,-1741.0,-1743.0,-1758.0,-1762.0,-1767.0,-1735.0,-1722.0,-1685.0,-1588.0,-1508.0,-1450.0,-1421.0,-1316.0,-1284.0,-1216.0,-1194.0,-1113.0,-1108.0,-1160.0,-1214.0,-1314.0,-1400.0,-1444.0,-1400.0,-1310.0,-1222.0,-1185.0,-1159.0,-1145.0,-1141.0,-1140.0,-1127.0,-1152.0,-1188.0,-1153.0,-1098.0,-1121.0,-1137.0,-1214.0,-1108.0,-811.0,-805.0,-522.0,-238.0,-251.0,-231.0,-230.0,-165.0,-72.0,-47.0,-48.0,-42.0,-66.0,-118.0,-151.0,-138.0,-30.0,-4.0,-1.0,-1.0,-122.0,-38.0,530.0,201.0,399.0,124.0,-10.0,-5.0,19.0,350.0,188.0,366.0,50.0,117.0,394.0,917.0,215.0,488.0,641.0,345.0,135.0,18.0,6.0,209.0,875.0,1106.0,842.0,1075.0,789.0,735.0,763.0,881.0,927.0,740.0,880.0,799.0,742.0,776.0,786.0,775.0,658.0,632.0,652.0,648.0,610.0,590.0,558.0,531.0,455.0,395.0,382.0,386.0,485.0,521.0,556.0,638.0,688.0,733.0,738.0,715.0,701.0,690.0,644.0,627.0,664.0,727.0,793.0,869.0,853.0,785.0,765.0,946.0,1103.0,998.0,983.0,978.0,1001.0,958.0,869.0,761.0,657.0,629.0,661.0,907.0,1013.0,1080.0,1020.0,861.0,836.0,678.0,806.0,934.0,874.0,619.0,583.0,492.0,669.0,882.0,1145.0,967.0,858.0,1309.0,1055.0,311.0,537.0,809.0,961.0,761.0,681.0,-51.0,-1.0,157.0,-678.0,-679.0,-680.0,-682.0,-682.0,-683.0,-683.0,-685.0,-686.0,-702.0,-741.0,-782.0,-769.0,-757.0,-744.0,-720.0,-707.0,-699.0,-686.0,-724.0,-710.0,-723.0,-687.0,-607.0,-574.0,-508.0,-422.0,-385.0,-364.0,-353.0,-353.0,-402.0,-430.0,-508.0,-489.0,-500.0,-577.0,-618.0,-624.0,-658.0,-671.0,-642.0,-629.0,-576.0,-532.0,-520.0,-464.0,-444.0,-436.0,-422.0,-413.0,-381.0,-365.0,-367.0,-695.0,-1160.0,-1187.0,-1220.0,-1231.0,-1245.0,-1235.0,-1210.0,-1213.0,-1256.0,-1284.0,-1319.0,-1357.0,-1505.0,-1567.0,-1522.0,-1648.0,-1679.0,-1694.0,-1748.0,-1860.0,-1917.0,-1987.0,-2052.0,-2121.0,-2184.0,-2223.0,-2245.0,-2307.0,-2363.0,-2409.0,-2434.0,-2410.0,-2423.0,-2445.0,-2457.0,-2481.0,-2502.0,-2472.0,-2450.0,-2445.0,-2477.0,-2458.0,-2447.0,-2382.0,-2414.0,-2405.0,-2351.0,-2289.0,-2251.0,-2204.0,-2102.0,-1999.0,-1890.0,-1778.0,-1695.0,-1655.0,-1595.0,-1514.0,-1455.0,-1408.0,-1394.0,-1389.0,-1398.0,-1361.0,-1275.0,-1233.0,-1221.0,-1172.0,-1068.0,-1022.0,-993.0,-967.0,-933.0,-899.0,-862.0,-763.0,-728.0,-683.0,-613.0,-460.0,-392.0,-348.0,-347.0,-333.0,-337.0,-344.0,-352.0,-359.0,-353.0,-338.0,-323.0,-290.0,-273.0,-259.0,-254.0,-219.0,-189.0,-210.0,-214.0,-231.0,-253.0,-268.0,-276.0,-343.0,-375.0,-388.0,-385.0,-175.0,-169.0,-153.0,-149.0,-149.0,-147.0,-144.0,-141.0,-142.0,-140.0,-140.0,-143.0,-169.0,-183.0,-135.0,-163.0,-124.0,-146.0,-142.0,-128.0,-153.0,-142.0,-162.0,-164.0,-149.0,-113.0,-100.0,-103.0,-96.0,-90.0,-90.0,-86.0,-85.0,-85.0,-84.0,-84.0,-78.0,-84.0,-79.0,-76.0,-70.0,-41.0,-45.0,-133.0,-166.0,-202.0,-219.0,-445.0,-715.0
-298.0,-364.0,-397.0,-431.0,-474.0,-536.0,-597.0,-595.0,-601.0,-679.0,-705.0,-680.0,-669.0,-661.0,-668.0,-724.0,-799.0,-927.0,-992.0,-1030.0,-1070.0,-1067.0,-1163.0,-1218.0,-1197.0,-1092.0,-1067.0,-1043.0,-1024.0,-995.0,-981.0,-949.0,-915.0,-876.0,-959.0,-1039.0,-1057.0,-1109.0,-1145.0,-1178.0,-1281.0,-1351.0,-1391.0,-1496.0,-1591.0,-1574.0,-1671.0,-1678.0,-1776.0,-1780.0,-1774.0,-1793.0,-1806.0,-1756.0,-1717.0,-1692.0,-1561.0,-1549.0,-1470.0,-1416.0,-1361.0,-1368.0,-1255.0,-1217.0,-1147.0,-1135.0,-1185.0,-1249.0,-1432.0,-1433.0,-1335.0,-1290.0,-1206.0,-1200.0,-1164.0,-1144.0,-1155.0,-1128.0,-1119.0,-1130.0,-1156.0,-1184.0,-1189.0,-1145.0,-1132.0,-1179.0,-1247.0,-1120.0,-956.0,-971.0,-746.0,-472.0,-231.0,-227.0,-200.0,-77.0,-59.0,-49.0,-43.0,-43.0,-44.0,-105.0,-91.0,-108.0,-138.0,-405.0,-300.0,-257.0,-3.0,5.0,69.0,475.0,730.0,274.0,654.0,512.0,460.0,326.0,416.0,375.0,-8.0,607.0,688.0,728.0,179.0,464.0,611.0,710.0,676.0,381.0,29.0,666.0,798.0,944.0,825.0,1000.0,687.0,662.0,517.0,628.0,712.0,710.0,851.0,789.0,736.0,767.0,781.0,768.0,672.0,639.0,625.0,616.0,594.0,567.0,532.0,480.0,404.0,375.0,380.0,394.0,506.0,538.0,580.0,668.0,721.0,779.0,788.0,745.0,718.0,679.0,600.0,439.0,569.0,677.0,740.0,845.0,878.0,902.0,606.0,834.0,890.0,965.0,987.0,1059.0,1038.0,996.0,925.0,842.0,808.0,723.0,671.0,913.0,934.0,975.0,1067.0,1044.0,922.0,806.0,793.0,1010.0,1096.0,1316.0,836.0,723.0,524.0,522.0,492.0,997.0,885.0,838.0,896.0,523.0,559.0,592.0,632.0,620.0,533.0,322.0,54.0,177.0,78.0,-669.0,-670.0,-672.0,-673.0,-673.0,-674.0,-675.0,-676.0,-677.0,-678.0,-752.0,-792.0,-779.0,-767.0,-742.0,-730.0,-717.0,-705.0,-691.0,-736.0,-707.0,-623.0,-600.0,-562.0,-508.0,-448.0,-397.0,-359.0,-347.0,-371.0,-406.0,-475.0,-481.0,-482.0,-509.0,-502.0,-593.0,-615.0,-707.0,-704.0,-686.0,-664.0,-603.0,-571.0,-540.0,-490.0,-490.0,-502.0,-457.0,-419.0,-378.0,-369.0,-362.0,-591.0,-1205.0,-1245.0,-1266.0,-1280.0,-1285.0,-1263.0,-1254.0,-1270.0,-1312.0,-1325.0,-1383.0,-1423.0,-1501.0,-1524.0,-1632.0,-1764.0,-1779.0,-1757.0,-1785.0,-1867.0,-1915.0,-1999.0,-2074.0,-2119.0,-2196.0,-2241.0,-2259.0,-2338.0,-2417.0,-2449.0,-2430.0,-2431.0,-2444.0,-2451.0,-2453.0,-2447.0,-2510.0,-2494.0,-2486.0,-2449.0,-2481.0,-2468.0,-2443.0,-2428.0,-2450.0,-2401.0,-2369.0,-2249.0,-2220.0,-2193.0,-2085.0,-2065.0,-2108.0,-1844.0,-1703.0,-1621.0,-1572.0,-1506.0,-1470.0,-1428.0,-1407.0,-1400.0,-1416.0,-1403.0,-1297.0,-1269.0,-1257.0,-1218.0,-1128.0,-1069.0,-1008.0,-982.0,-968.0,-931.0,-899.0,-831.0,-777.0,-715.0,-667.0,-516.0,-436.0,-370.0,-350.0,-332.0,-334.0,-339.0,-351.0,-362.0,-347.0,-322.0,-309.0,-217.0,-214.0,-216.0,-211.0,-236.0,-212.0,-227.0,-238.0,-252.0,-290.0,-295.0,-293.0,-352.0,-379.0,-381.0,-372.0,-172.0,-165.0,-153.0,-148.0,-149.0,-149.0,-149.0,-143.0,-147.0,-145.0,-146.0,-167.0,-167.0,-36.0,-124.0,-137.0,-149.0,-145.0,-152.0,-146.0,-143.0,-159.0,-145.0,-151.0,-138.0,-110.0,-108.0,-101.0,-96.0,-96.0,-94.0,-90.0,-89.0,-89.0,-87.0,-88.0,-91.0,-89.0,-92.0,-75.0,-61.0,-49.0,-100.0,-122.0,-151.0,-208.0,-236.0,-595.0,-805.0
-332.0,-445.0,-500.0,-538.0,-583.0,-629.0,-668.0,-707.0,-746.0,-800.0,-800.0,-795.0,-781.0,-817.0,-845.0,-888.0,-935.0,-1030.0,-1095.0,-1043.0,-1145.0,-1210.0,-1197.0,-1205.0,-1123.0,-1088.0,-1068.0,-1055.0,-1035.0,-987.0,-962.0,-937.0,-921.0,-879.0,-953.0,-1068.0,-1116.0,-1185.0,-1269.0,-1317.0,-1404.0,-1429.0,-1439.0,-1512.0,-1577.0,-1651.0,-1703.0,-1772.0,-1851.0,-1834.0,-1825.0,-1811.0,-1857.0,-1867.0,-1838.0,-1731.0,-1645.0,-1614.0,-1572.0,-1470.0,-1268.0,-1249.0,-1269.0,-1221.0,-1160.0,-1209.0,-1235.0,-1297.0,-1506.0,-1260.0,-1167.0,-1184.0,-1152.0,-1138.0,-1148.0,-1145.0,-1106.0,-1102.0,-1098.0,-1098.0,-1140.0,-1185.0,-1231.0,-1251.0,-1150.0,-1222.0,-1297.0,-1261.0,-1212.0,-1154.0,-1155.0,-1107.0,-658.0,-202.0,-97.0,-73.0,-56.0,-45.0,-41.0,-42.0,-37.0,-91.0,-204.0,-98.0,-17.0,-25.0,-14.0,-10.0,-6.0,-35.0,-203.0,-206.0,163.0,-10.0,308.0,73.0,-8.0,337.0,213.0,527.0,186.0,39.0,51.0,403.0,215.0,40.0,129.0,222.0,403.0,634.0,407.0,442.0,649.0,571.0,454.0,722.0,661.0,450.0,570.0,594.0,794.0,839.0,628.0,533.0,684.0,886.0,958.0,891.0,806.0,749.0,658.0,614.0,564.0,524.0,474.0,432.0,393.0,408.0,405.0,464.0,527.0,564.0,607.0,713.0,766.0,821.0,855.0,793.0,771.0,744.0,720.0,658.0,609.0,654.0,693.0,761.0,781.0,740.0,740.0,573.0,942.0,869.0,921.0,959.0,954.0,926.0,927.0,964.0,968.0,896.0,868.0,812.0,731.0,921.0,1003.0,1093.0,1083.0,980.0,929.0,963.0,924.0,1146.0,1034.0,1008.0,1090.0,1086.0,976.0,850.0,702.0,483.0,491.0,246.0,393.0,347.0,256.0,370.0,384.0,505.0,442.0,68.0,90.0,-650.0,-651.0,-652.0,-653.0,-654.0,-654.0,-656.0,-657.0,-658.0,-659.0,-661.0,-662.0,-696.0,-736.0,-787.0,-775.0,-762.0,-750.0,-740.0,-677.0,-599.0,-525.0,-651.0,-593.0,-541.0,-494.0,-418.0,-396.0,-404.0,-419.0,-403.0,-428.0,-468.0,-502.0,-511.0,-587.0,-635.0,-637.0,-647.0,-623.0,-646.0,-624.0,-598.0,-564.0,-611.0,-608.0,-547.0,-489.0,-455.0,-429.0,-388.0,-377.0,-367.0,-518.0,-1256.0,-1325.0,-1321.0,-1367.0,-1368.0,-1373.0,-1401.0,-1428.0,-1417.0,-1454.0,-1499.0,-1500.0,-1578.0,-1608.0,-1671.0,-1741.0,-1804.0,-1839.0,-1932.0,-2054.0,-2086.0,-2050.0,-2136.0,-2163.0,-2220.0,-2273.0,-2326.0,-2414.0,-2424.0,-2409.0,-2418.0,-2474.0,-2492.0,-2500.0,-2492.0,-2501.0,-2547.0,-2504.0,-2518.0,-2509.0,-2507.0,-2479.0,-2490.0,-2457.0,-2439.0,-2372.0,-2323.0,-2207.0,-2220.0,-2300.0,-2167.0,-2000.0,-1976.0,-1905.0,-1798.0,-1666.0,-1591.0,-1545.0,-1508.0,-1532.0,-1503.0,-1442.0,-1388.0,-1433.0,-1370.0,-1328.0,-1295.0,-1324.0,-1257.0,-1097.0,-1055.0,-1026.0,-1009.0,-981.0,-958.0,-898.0,-853.0,-811.0,-743.0,-648.0,-572.0,-445.0,-365.0,-340.0,-349.0,-353.0,-350.0,-342.0,-324.0,-263.0,-220.0,-217.0,-234.0,-211.0,-197.0,-201.0,-228.0,-251.0,-281.0,-327.0,-329.0,-324.0,-325.0,-365.0,-382.0,-383.0,-366.0,-168.0,-162.0,-148.0,-140.0,-146.0,-153.0,-159.0,-158.0,-134.0,-166.0,-102.0,-49.0,-131.0,-135.0,-144.0,-139.0,-159.0,-146.0,-153.0,-186.0,-217.0,-209.0,-192.0,-176.0,-148.0,-143.0,-132.0,-131.0,-129.0,-124.0,-121.0,-110.0,-103.0,-103.0,-104.0,-109.0,-108.0,-110.0,-111.0,-96.0,-62.0,-112.0,-127.0,-147.0,-165.0,-225.0,-495.0,-809.0,-840.0
-346.0,-447.0,-494.0,-546.0,-577.0,-668.0,-697.0,-745.0,-770.0,-833.0,-827.0,-817.0,-832.0,-871.0,-897.0,-934.0,-989.0,-1066.0,-1099.0,-1104.0,-1149.0,-1174.0,-1240.0,-1260.0,-1269.0,-1176.0,-1127.0,-1086.0,-1049.0,-986.0,-957.0,-926.0,-899.0,-906.0,-982.0,-1100.0,-1162.0,-1249.0,-1288.0,-1409.0,-1483.0,-1485.0,-1532.0,-1525.0,-1643.0,-1685.0,-1733.0,-1773.0,-1884.0,-1866.0,-1865.0,-1865.0,-1920.0,-1890.0,-1878.0,-1788.0,-1694.0,-1623.0,-1559.0,-1602.0,-1258.0,-1255.0,-1242.0,-1229.0,-1161.0,-1225.0,-1279.0,-1337.0,-1491.0,-1239.0,-1165.0,-1148.0,-1126.0,-1119.0,-1122.0,-1118.0,-1111.0,-1091.0,-1093.0,-1091.0,-1122.0,-1151.0,-1211.0,-1256.0,-1255.0,-1278.0,-1340.0,-1354.0,-1321.0,-1284.0,-1168.0,-1126.0,-776.0,-519.0,-127.0,-79.0,-59.0,-48.0,-43.0,-40.0,-43.0,-165.0,-294.0,-89.0,-49.0,-48.0,-19.0,-10.0,-1.0,45.0,80.0,111.0,164.0,487.0,698.0,492.0,493.0,139.0,1137.0,1099.0,481.0,419.0,668.0,678.0,300.0,576.0,622.0,461.0,706.0,495.0,467.0,577.0,657.0,627.0,651.0,486.0,434.0,664.0,312.0,259.0,611.0,637.0,774.0,667.0,659.0,958.0,1011.0,910.0,789.0,730.0,643.0,603.0,550.0,519.0,481.0,433.0,365.0,394.0,412.0,478.0,546.0,573.0,613.0,710.0,763.0,794.0,821.0,808.0,794.0,786.0,787.0,681.0,648.0,684.0,705.0,731.0,704.0,569.0,529.0,567.0,496.0,735.0,801.0,904.0,900.0,880.0,878.0,903.0,877.0,851.0,837.0,808.0,761.0,814.0,888.0,978.0,1113.0,952.0,933.0,977.0,947.0,784.0,983.0,1107.0,1297.0,1311.0,1130.0,812.0,760.0,734.0,617.0,647.0,412.0,-68.0,-141.0,140.0,166.0,273.0,487.0,-638.0,74.0,130.0,-641.0,-642.0,-643.0,-644.0,-644.0,-646.0,-647.0,-648.0,-649.0,-651.0,-652.0,-653.0,-668.0,-747.0,-787.0,-785.0,-773.0,-699.0,-605.0,-505.0,-495.0,-679.0,-630.0,-609.0,-511.0,-445.0,-445.0,-461.0,-459.0,-441.0,-446.0,-459.0,-478.0,-530.0,-534.0,-524.0,-515.0,-534.0,-552.0,-573.0,-569.0,-562.0,-549.0,-566.0,-534.0,-476.0,-452.0,-435.0,-415.0,-384.0,-377.0,-367.0,-486.0,-1326.0,-1347.0,-1400.0,-1407.0,-1451.0,-1471.0,-1474.0,-1491.0,-1511.0,-1501.0,-1531.0,-1559.0,-1630.0,-1675.0,-1714.0,-1782.0,-1816.0,-1849.0,-1908.0,-2061.0,-2059.0,-2169.0,-2205.0,-2236.0,-2260.0,-2283.0,-2383.0,-2392.0,-2414.0,-2422.0,-2449.0,-2502.0,-2506.0,-2517.0,-2508.0,-2510.0,-2559.0,-2496.0,-2491.0,-2548.0,-2557.0,-2539.0,-2540.0,-2451.0,-2424.0,-2389.0,-2333.0,-2295.0,-2264.0,-2263.0,-2206.0,-1953.0,-1990.0,-1906.0,-1794.0,-1703.0,-1625.0,-1561.0,-1513.0,-1555.0,-1558.0,-1479.0,-1469.0,-1465.0,-1414.0,-1369.0,-1337.0,-1320.0,-1220.0,-1131.0,-1080.0,-1040.0,-1027.0,-1009.0,-981.0,-926.0,-881.0,-832.0,-814.0,-712.0,-641.0,-531.0,-392.0,-345.0,-350.0,-352.0,-357.0,-331.0,-315.0,-220.0,-214.0,-222.0,-217.0,-210.0,-196.0,-217.0,-234.0,-271.0,-315.0,-332.0,-323.0,-326.0,-350.0,-379.0,-387.0,-375.0,-352.0,-165.0,-160.0,-150.0,-147.0,-145.0,-152.0,-164.0,-168.0,-157.0,-192.0,-158.0,-130.0,-148.0,-158.0,-152.0,-163.0,-188.0,-195.0,-198.0,-202.0,-246.0,-236.0,-217.0,-187.0,-154.0,-145.0,-140.0,-128.0,-136.0,-134.0,-132.0,-126.0,-125.0,-125.0,-125.0,-120.0,-119.0,-118.0,-121.0,-18.0,-90.0,-135.0,-144.0,-164.0,-301.0,-642.0,-583.0,-757.0,-897.0
-355.0,-437.0,-506.0,-537.0,-575.0,-682.0,-708.0,-732.0,-766.0,-824.0,-846.0,-870.0,-881.0,-918.0,-945.0,-976.0,-1030.0,-1102.0,-1125.0,-1168.0,-1187.0,-1182.0,-1241.0,-1279.0,-1290.0,-1281.0,-1215.0,-1112.0,-1075.0,-983.0,-970.0,-922.0,-921.0,-938.0,-1051.0,-1139.0,-1210.0,-1262.0,-1268.0,-1459.0,-1500.0,-1501.0,-1578.0,-1544.0,-1637.0,-1602.0,-1746.0,-1806.0,-1923.0,-1882.0,-1876.0,-1912.0,-1869.0,-1917.0,-1860.0,-1906.0,-1713.0,-1655.0,-1572.0,-1507.0,-1309.0,-1228.0,-1226.0,-1201.0,-1185.0,-1285.0,-1328.0,-1413.0,-1347.0,-1247.0,-1168.0,-1150.0,-1104.0,-1113.0,-1106.0,-1100.0,-1095.0,-1086.0,-1092.0,-1089.0,-1094.0,-1108.0,-1151.0,-1187.0,-1250.0,-1296.0,-1378.0,-1413.0,-1314.0,-1276.0,-1186.0,-1027.0,-901.0,-581.0,-155.0,-81.0,-61.0,-46.0,-47.0,-45.0,-41.0,-243.0,-167.0,-92.0,-50.0,-58.0,-19.0,-9.0,-81.0,16.0,172.0,60.0,1.0,481.0,585.0,654.0,696.0,546.0,883.0,1049.0,752.0,481.0,738.0,737.0,309.0,373.0,446.0,493.0,636.0,655.0,758.0,751.0,472.0,332.0,106.0,316.0,663.0,686.0,896.0,494.0,594.0,346.0,740.0,665.0,599.0,811.0,887.0,844.0,626.0,576.0,585.0,560.0,545.0,522.0,503.0,472.0,369.0,400.0,424.0,434.0,552.0,584.0,606.0,698.0,722.0,763.0,782.0,798.0,797.0,805.0,824.0,875.0,782.0,746.0,731.0,743.0,736.0,812.0,783.0,764.0,735.0,826.0,705.0,851.0,839.0,833.0,820.0,623.0,672.0,777.0,851.0,993.0,884.0,817.0,600.0,681.0,801.0,732.0,532.0,898.0,736.0,942.0,960.0,716.0,849.0,718.0,890.0,863.0,933.0,855.0,669.0,897.0,428.0,-101.0,-147.0,21.0,-6.0,74.0,345.0,-629.0,-629.0,0.0,-631.0,-633.0,-633.0,-634.0,-635.0,-636.0,-637.0,-638.0,-639.0,-641.0,-642.0,-643.0,-644.0,-680.0,-720.0,-759.0,-799.0,-628.0,-532.0,-475.0,-498.0,-631.0,-649.0,-628.0,-526.0,-519.0,-537.0,-582.0,-459.0,-464.0,-447.0,-424.0,-424.0,-427.0,-429.0,-430.0,-408.0,-411.0,-452.0,-476.0,-490.0,-522.0,-524.0,-527.0,-500.0,-469.0,-451.0,-442.0,-427.0,-390.0,-375.0,-368.0,-483.0,-1156.0,-1131.0,-1441.0,-1433.0,-1489.0,-1502.0,-1522.0,-1553.0,-1600.0,-1580.0,-1589.0,-1613.0,-1693.0,-1718.0,-1750.0,-1844.0,-1885.0,-1941.0,-1995.0,-2072.0,-2106.0,-2153.0,-2197.0,-2297.0,-2325.0,-2368.0,-2409.0,-2388.0,-2409.0,-2455.0,-2484.0,-2510.0,-2528.0,-2548.0,-2541.0,-2537.0,-2549.0,-2512.0,-2503.0,-2576.0,-2573.0,-2568.0,-2558.0,-2479.0,-2428.0,-2378.0,-2347.0,-2302.0,-2279.0,-2251.0,-2203.0,-2035.0,-1933.0,-1889.0,-1794.0,-1735.0,-1670.0,-1582.0,-1524.0,-1524.0,-1516.0,-1503.0,-1483.0,-1512.0,-1450.0,-1396.0,-1367.0,-1269.0,-1173.0,-1141.0,-1106.0,-1061.0,-1053.0,-1046.0,-1023.0,-955.0,-912.0,-867.0,-831.0,-735.0,-710.0,-606.0,-498.0,-353.0,-354.0,-356.0,-360.0,-325.0,-243.0,-209.0,-211.0,-222.0,-203.0,-189.0,-187.0,-229.0,-263.0,-314.0,-334.0,-336.0,-343.0,-361.0,-385.0,-383.0,-394.0,-373.0,-340.0,-156.0,-156.0,-152.0,-150.0,-156.0,-149.0,-155.0,-172.0,-193.0,-191.0,-223.0,-141.0,-177.0,-167.0,-168.0,-172.0,-196.0,-204.0,-215.0,-227.0,-262.0,-248.0,-235.0,-202.0,-163.0,-140.0,-135.0,-134.0,-138.0,-141.0,-143.0,-143.0,-143.0,-139.0,-138.0,-134.0,-131.0,-130.0,-131.0,-134.0,-145.0,-150.0,-162.0,-185.0,-516.0,-676.0,-830.0,-924.0,-928.0
-373.0,-418.0,-499.0,-536.0,-576.0,-656.0,-684.0,-715.0,-754.0,-823.0,-873.0,-894.0,-910.0,-960.0,-996.0,-1026.0,-1066.0,-1139.0,-1167.0,-1163.0,-1206.0,-1286.0,-1288.0,-1296.0,-1297.0,-1290.0,-1244.0,-1098.0,-1069.0,-982.0,-961.0,-954.0,-920.0,-1036.0,-1094.0,-1162.0,-1298.0,-1429.0,-1326.0,-1619.0,-1560.0,-1563.0,-1587.0,-1644.0,-1668.0,-1692.0,-1792.0,-1863.0,-1916.0,-1985.0,-1913.0,-1883.0,-1888.0,-1877.0,-1854.0,-1893.0,-1724.0,-1654.0,-1571.0,-1541.0,-1346.0,-1225.0,-1198.0,-1196.0,-1207.0,-1295.0,-1367.0,-1492.0,-1247.0,-1211.0,-1162.0,-1115.0,-1091.0,-1092.0,-1103.0,-1093.0,-1092.0,-1083.0,-1073.0,-1076.0,-1070.0,-1071.0,-1099.0,-1131.0,-1187.0,-1223.0,-1330.0,-1429.0,-1360.0,-1268.0,-1152.0,-1111.0,-866.0,-685.0,-199.0,-91.0,-64.0,-48.0,-43.0,-45.0,-49.0,-237.0,-234.0,-100.0,-80.0,-100.0,-68.0,-12.0,-6.0,-91.0,12.0,81.0,592.0,347.0,568.0,301.0,687.0,974.0,980.0,732.0,815.0,771.0,626.0,450.0,117.0,352.0,159.0,634.0,694.0,718.0,665.0,-189.0,227.0,274.0,398.0,529.0,941.0,779.0,923.0,630.0,543.0,494.0,562.0,536.0,425.0,656.0,773.0,754.0,581.0,541.0,557.0,535.0,535.0,526.0,528.0,546.0,465.0,467.0,470.0,468.0,567.0,594.0,624.0,682.0,706.0,726.0,744.0,774.0,779.0,790.0,819.0,891.0,855.0,785.0,753.0,768.0,765.0,809.0,883.0,827.0,897.0,891.0,681.0,606.0,736.0,790.0,809.0,668.0,640.0,750.0,879.0,982.0,952.0,972.0,929.0,911.0,755.0,647.0,629.0,882.0,969.0,888.0,886.0,737.0,700.0,747.0,736.0,689.0,764.0,763.0,682.0,932.0,558.0,240.0,24.0,-77.0,-141.0,-279.0,-68.0,-619.0,69.0,-620.0,-621.0,-623.0,-624.0,-624.0,-625.0,-627.0,-628.0,-629.0,-630.0,-632.0,-633.0,-634.0,-635.0,-637.0,-652.0,-757.0,-707.0,-537.0,-470.0,-477.0,-519.0,-622.0,-647.0,-609.0,-557.0,-614.0,-628.0,-609.0,-553.0,-417.0,-373.0,-376.0,-363.0,-360.0,-364.0,-363.0,-349.0,-348.0,-349.0,-377.0,-413.0,-441.0,-480.0,-475.0,-465.0,-460.0,-451.0,-436.0,-423.0,-403.0,-383.0,-370.0,-560.0,-1410.0,-1480.0,-1499.0,-1530.0,-1531.0,-1552.0,-1560.0,-1576.0,-1642.0,-1660.0,-1639.0,-1654.0,-1731.0,-1754.0,-1778.0,-1874.0,-1915.0,-1962.0,-2000.0,-2020.0,-2114.0,-2148.0,-2141.0,-2290.0,-2358.0,-2373.0,-2464.0,-2461.0,-2468.0,-2487.0,-2508.0,-2551.0,-2581.0,-2593.0,-2587.0,-2595.0,-2586.0,-2533.0,-2515.0,-2599.0,-2586.0,-2563.0,-2571.0,-2496.0,-2426.0,-2378.0,-2348.0,-2305.0,-2287.0,-2265.0,-2236.0,-1991.0,-1932.0,-1911.0,-1887.0,-1774.0,-1712.0,-1620.0,-1558.0,-1522.0,-1518.0,-1534.0,-1507.0,-1523.0,-1472.0,-1414.0,-1374.0,-1253.0,-1185.0,-1170.0,-1144.0,-1087.0,-1084.0,-1090.0,-1075.0,-990.0,-955.0,-914.0,-891.0,-797.0,-726.0,-669.0,-568.0,-364.0,-368.0,-367.0,-349.0,-272.0,-226.0,-225.0,-215.0,-194.0,-184.0,-193.0,-210.0,-272.0,-321.0,-349.0,-348.0,-365.0,-396.0,-410.0,-412.0,-424.0,-437.0,-366.0,-311.0,-159.0,-161.0,-158.0,-152.0,-156.0,-165.0,-171.0,-162.0,-248.0,-88.0,-183.0,-190.0,-182.0,-185.0,-179.0,-184.0,-194.0,-208.0,-220.0,-232.0,-261.0,-262.0,-246.0,-217.0,-177.0,-166.0,-151.0,-154.0,-148.0,-147.0,-149.0,-157.0,-159.0,-162.0,-155.0,-148.0,-148.0,-147.0,-147.0,-152.0,-161.0,-165.0,-178.0,-226.0,-439.0,-700.0,-871.0,-1053.0,-1172.0
-396.0,-401.0,-437.0,-522.0,-573.0,-659.0,-692.0,-731.0,-779.0,-864.0,-909.0,-939.0,-981.0,-1058.0,-1097.0,-1138.0,-1160.0,-1203.0,-1249.0,-1298.0,-1320.0,-1368.0,-1365.0,-1368.0,-1370.0,-1258.0,-1084.0,-1056.0,-1049.0,-969.0,-940.0,-954.0,-998.0,-1107.0,-1189.0,-1235.0,-1248.0,-1509.0,-1613.0,-1632.0,-1613.0,-1624.0,-1663.0,-1714.0,-1782.0,-1828.0,-1885.0,-1928.0,-1923.0,-2002.0,-2037.0,-2074.0,-2000.0,-1985.0,-1960.0,-1938.0,-1937.0,-1828.0,-1693.0,-1583.0,-1402.0,-1367.0,-1282.0,-1235.0,-1309.0,-1404.0,-1385.0,-1644.0,-1179.0,-1162.0,-1142.0,-1099.0,-1073.0,-1069.0,-1074.0,-1094.0,-1079.0,-1093.0,-1080.0,-1066.0,-1070.0,-1064.0,-1055.0,-1063.0,-1082.0,-1130.0,-1209.0,-1409.0,-1484.0,-1438.0,-1232.0,-1216.0,-1033.0,-728.0,-301.0,-80.0,-67.0,-56.0,-42.0,-36.0,-98.0,-201.0,-323.0,-260.0,-75.0,-68.0,-68.0,-28.0,10.0,-197.0,-122.0,105.0,402.0,856.0,761.0,533.0,522.0,309.0,274.0,261.0,281.0,309.0,276.0,262.0,296.0,773.0,545.0,168.0,860.0,894.0,918.0,538.0,250.0,271.0,321.0,360.0,636.0,595.0,617.0,719.0,564.0,613.0,634.0,693.0,489.0,503.0,546.0,556.0,547.0,531.0,514.0,502.0,509.0,504.0,491.0,477.0,588.0,565.0,529.0,509.0,582.0,602.0,615.0,645.0,664.0,680.0,697.0,712.0,712.0,710.0,704.0,663.0,680.0,694.0,708.0,807.0,910.0,980.0,1022.0,993.0,981.0,988.0,898.0,810.0,794.0,812.0,786.0,767.0,815.0,847.0,861.0,571.0,730.0,857.0,967.0,1087.0,1173.0,1292.0,1454.0,836.0,969.0,1003.0,883.0,829.0,658.0,730.0,773.0,886.0,586.0,537.0,926.0,910.0,850.0,513.0,360.0,28.0,-28.0,-150.0,-94.0,-599.0,86.0,160.0,229.0,-603.0,-604.0,-605.0,-605.0,-605.0,-605.0,-247.0,-274.0,-327.0,-352.0,-380.0,-444.0,-608.0,-657.0,-623.0,-583.0,-456.0,-472.0,-503.0,-584.0,-663.0,-677.0,-713.0,-740.0,-721.0,-753.0,-682.0,-474.0,-336.0,-309.0,-288.0,-261.0,-252.0,-259.0,-269.0,-282.0,-332.0,-331.0,-321.0,-323.0,-337.0,-378.0,-396.0,-403.0,-397.0,-387.0,-386.0,-382.0,-382.0,-380.0,-395.0,-811.0,-1402.0,-1532.0,-1588.0,-1618.0,-1634.0,-1643.0,-1659.0,-1672.0,-1718.0,-1750.0,-1801.0,-1825.0,-1859.0,-1890.0,-1936.0,-1994.0,-2020.0,-2036.0,-2039.0,-2099.0,-2143.0,-2208.0,-2275.0,-2372.0,-2373.0,-2369.0,-2379.0,-2448.0,-2498.0,-2527.0,-2549.0,-2590.0,-2573.0,-2577.0,-2590.0,-2640.0,-2623.0,-2615.0,-2575.0,-2588.0,-2617.0,-2619.0,-2608.0,-2531.0,-2461.0,-2393.0,-2346.0,-2305.0,-2295.0,-2270.0,-2229.0,-2057.0,-1931.0,-1847.0,-1869.0,-1825.0,-1758.0,-1688.0,-1623.0,-1606.0,-1609.0,-1571.0,-1510.0,-1460.0,-1404.0,-1386.0,-1383.0,-1321.0,-1276.0,-1236.0,-1222.0,-1185.0,-1169.0,-1122.0,-1149.0,-1116.0,-1104.0,-1078.0,-1050.0,-970.0,-912.0,-801.0,-750.0,-483.0,-350.0,-314.0,-281.0,-251.0,-227.0,-228.0,-240.0,-244.0,-262.0,-303.0,-334.0,-362.0,-364.0,-373.0,-393.0,-430.0,-429.0,-424.0,-431.0,-449.0,-431.0,-392.0,-275.0,-166.0,-167.0,-167.0,-163.0,-155.0,-152.0,-157.0,-187.0,-260.0,-239.0,-227.0,-212.0,-235.0,-250.0,-254.0,-196.0,-200.0,-202.0,-217.0,-239.0,-290.0,-289.0,-279.0,-275.0,-224.0,-201.0,-165.0,-169.0,-175.0,-175.0,-175.0,-180.0,-178.0,-186.0,-176.0,-170.0,-172.0,-181.0,-183.0,-199.0,-210.0,-232.0,-282.0,-402.0,-411.0,-490.0,-723.0,-1153.0,-1162.0
-407.0,-412.0,-458.0,-499.0,-583.0,-659.0,-693.0,-741.0,-788.0,-870.0,-919.0,-967.0,-1010.0,-1089.0,-1129.0,-1164.0,-1191.0,-1263.0,-1300.0,-1324.0,-1310.0,-1319.0,-1358.0,-1369.0,-1372.0,-1186.0,-1058.0,-1028.0,-1018.0,-971.0,-971.0,-1015.0,-1045.0,-1127.0,-1218.0,-1312.0,-1378.0,-1558.0,-1636.0,-1635.0,-1657.0,-1645.0,-1700.0,-1749.0,-1816.0,-1846.0,-1854.0,-1907.0,-2047.0,-2052.0,-2079.0,-2076.0,-2039.0,-2015.0,-2010.0,-2003.0,-1911.0,-1863.0,-1752.0,-1623.0,-1463.0,-1382.0,-1360.0,-1307.0,-1389.0,-1493.0,-1420.0,-1680.0,-1267.0,-1205.0,-1166.0,-1124.0,-1080.0,-1068.0,-1066.0,-1074.0,-1073.0,-1086.0,-1082.0,-1077.0,-1059.0,-1051.0,-1048.0,-1040.0,-1068.0,-1090.0,-1148.0,-1259.0,-1514.0,-1466.0,-1277.0,-1339.0,-965.0,-770.0,-272.0,-86.0,-64.0,-52.0,-48.0,-40.0,-86.0,-286.0,-383.0,-97.0,-84.0,-51.0,-50.0,-21.0,-2.0,-191.0,-90.0,402.0,573.0,537.0,188.0,0.0,719.0,821.0,1027.0,363.0,505.0,697.0,396.0,677.0,711.0,413.0,468.0,619.0,696.0,904.0,958.0,889.0,127.0,292.0,543.0,549.0,301.0,405.0,645.0,494.0,610.0,584.0,596.0,638.0,558.0,391.0,426.0,458.0,427.0,422.0,456.0,474.0,495.0,491.0,476.0,449.0,451.0,502.0,509.0,506.0,580.0,592.0,608.0,635.0,639.0,650.0,669.0,674.0,663.0,649.0,622.0,571.0,588.0,617.0,655.0,729.0,803.0,871.0,932.0,936.0,899.0,935.0,864.0,870.0,838.0,850.0,891.0,791.0,879.0,939.0,994.0,805.0,641.0,831.0,940.0,1080.0,1222.0,1259.0,1646.0,1235.0,857.0,771.0,782.0,919.0,760.0,743.0,814.0,779.0,587.0,474.0,804.0,755.0,640.0,627.0,493.0,282.0,229.0,169.0,118.0,-594.0,-590.0,5.0,69.0,-33.0,-112.0,-151.0,-166.0,-201.0,-223.0,-250.0,-276.0,-330.0,-358.0,-387.0,-420.0,-616.0,-593.0,-508.0,-468.0,-485.0,-495.0,-566.0,-630.0,-655.0,-720.0,-806.0,-841.0,-841.0,-831.0,-765.0,-603.0,-243.0,-189.0,-172.0,-166.0,-200.0,-216.0,-235.0,-250.0,-279.0,-289.0,-305.0,-310.0,-313.0,-324.0,-348.0,-384.0,-376.0,-371.0,-369.0,-368.0,-370.0,-377.0,-588.0,-1139.0,-1514.0,-1530.0,-1600.0,-1687.0,-1674.0,-1689.0,-1722.0,-1734.0,-1776.0,-1791.0,-1829.0,-1854.0,-1905.0,-1921.0,-1995.0,-2064.0,-2103.0,-2111.0,-2108.0,-2155.0,-2217.0,-2289.0,-2348.0,-2382.0,-2389.0,-2396.0,-2416.0,-2467.0,-2493.0,-2504.0,-2511.0,-2625.0,-2639.0,-2642.0,-2628.0,-2631.0,-2594.0,-2597.0,-2613.0,-2590.0,-2618.0,-2611.0,-2616.0,-2560.0,-2469.0,-2384.0,-2334.0,-2295.0,-2299.0,-2279.0,-2214.0,-2072.0,-1983.0,-1878.0,-1880.0,-1850.0,-1789.0,-1725.0,-1657.0,-1632.0,-1611.0,-1553.0,-1507.0,-1473.0,-1473.0,-1434.0,-1423.0,-1332.0,-1319.0,-1292.0,-1236.0,-1210.0,-1196.0,-1194.0,-1200.0,-1162.0,-1139.0,-1118.0,-1105.0,-1035.0,-988.0,-896.0,-806.0,-572.0,-443.0,-363.0,-322.0,-269.0,-247.0,-246.0,-263.0,-294.0,-313.0,-345.0,-372.0,-372.0,-385.0,-400.0,-408.0,-422.0,-428.0,-439.0,-454.0,-450.0,-447.0,-392.0,-255.0,-171.0,-170.0,-171.0,-168.0,-157.0,-161.0,-147.0,-183.0,-249.0,-211.0,-206.0,-212.0,-267.0,-277.0,-228.0,-205.0,-190.0,-214.0,-226.0,-253.0,-291.0,-303.0,-292.0,-291.0,-260.0,-216.0,-174.0,-184.0,-180.0,-185.0,-193.0,-215.0,-238.0,-243.0,-236.0,-185.0,-193.0,-199.0,-214.0,-256.0,-332.0,-474.0,-573.0,-626.0,-573.0,-557.0,-600.0,-1165.0,-1226.0
-424.0,-424.0,-470.0,-472.0,-552.0,-654.0,-694.0,-750.0,-796.0,-891.0,-933.0,-987.0,-1033.0,-1112.0,-1148.0,-1187.0,-1216.0,-1237.0,-1260.0,-1306.0,-1278.0,-1284.0,-1306.0,-1360.0,-1374.0,-1128.0,-1026.0,-997.0,-973.0,-969.0,-1002.0,-1049.0,-1133.0,-1164.0,-1245.0,-1339.0,-1439.0,-1591.0,-1610.0,-1678.0,-1697.0,-1713.0,-1737.0,-1752.0,-1802.0,-1836.0,-1932.0,-1976.0,-2014.0,-2064.0,-2103.0,-2078.0,-2109.0,-2055.0,-2048.0,-2050.0,-1972.0,-1908.0,-1834.0,-1731.0,-1537.0,-1467.0,-1398.0,-1442.0,-1506.0,-1525.0,-1482.0,-1684.0,-1332.0,-1251.0,-1213.0,-1178.0,-1107.0,-1090.0,-1080.0,-1075.0,-1079.0,-1081.0,-1085.0,-1087.0,-1059.0,-1051.0,-1046.0,-1032.0,-1054.0,-1066.0,-1109.0,-1197.0,-1534.0,-1521.0,-1423.0,-1223.0,-1083.0,-822.0,-432.0,-108.0,-62.0,-54.0,-48.0,-44.0,-153.0,-291.0,-398.0,-125.0,-39.0,-50.0,-50.0,-32.0,-171.0,-206.0,45.0,51.0,69.0,117.0,730.0,469.0,581.0,699.0,365.0,980.0,843.0,972.0,631.0,731.0,1162.0,975.0,697.0,582.0,396.0,939.0,1094.0,1032.0,515.0,225.0,1036.0,685.0,679.0,453.0,686.0,972.0,396.0,592.0,601.0,579.0,541.0,435.0,400.0,406.0,388.0,392.0,426.0,459.0,483.0,487.0,488.0,480.0,447.0,474.0,488.0,491.0,518.0,581.0,595.0,625.0,625.0,635.0,645.0,637.0,622.0,595.0,536.0,483.0,497.0,548.0,590.0,616.0,518.0,665.0,791.0,794.0,771.0,698.0,768.0,834.0,835.0,826.0,944.0,923.0,968.0,1000.0,1065.0,990.0,875.0,946.0,980.0,1309.0,1340.0,1433.0,1378.0,1181.0,788.0,695.0,707.0,940.0,863.0,799.0,784.0,808.0,656.0,-386.0,914.0,553.0,599.0,584.0,575.0,555.0,509.0,372.0,197.0,105.0,102.0,-574.0,-570.0,-562.0,-540.0,-542.0,-545.0,-202.0,-225.0,-252.0,-279.0,-333.0,-359.0,-385.0,-409.0,-585.0,-490.0,-454.0,-456.0,-506.0,-542.0,-599.0,-628.0,-702.0,-810.0,-861.0,-927.0,-896.0,-870.0,-826.0,-732.0,-516.0,-360.0,-236.0,-188.0,-215.0,-241.0,-247.0,-261.0,-256.0,-261.0,-266.0,-276.0,-286.0,-300.0,-320.0,-348.0,-362.0,-357.0,-357.0,-353.0,-362.0,-533.0,-970.0,-1388.0,-1545.0,-1590.0,-1645.0,-1731.0,-1712.0,-1740.0,-1773.0,-1798.0,-1839.0,-1855.0,-1869.0,-1887.0,-1947.0,-1991.0,-2006.0,-2133.0,-2170.0,-2175.0,-2169.0,-2197.0,-2272.0,-2328.0,-2314.0,-2383.0,-2403.0,-2425.0,-2451.0,-2494.0,-2507.0,-2518.0,-2535.0,-2606.0,-2633.0,-2652.0,-2665.0,-2674.0,-2640.0,-2638.0,-2600.0,-2607.0,-2610.0,-2590.0,-2595.0,-2588.0,-2494.0,-2385.0,-2315.0,-2272.0,-2297.0,-2300.0,-2185.0,-2063.0,-2019.0,-1949.0,-1916.0,-1866.0,-1818.0,-1763.0,-1686.0,-1602.0,-1590.0,-1525.0,-1514.0,-1450.0,-1482.0,-1445.0,-1431.0,-1358.0,-1372.0,-1288.0,-1288.0,-1241.0,-1232.0,-1219.0,-1240.0,-1201.0,-1168.0,-1153.0,-1136.0,-1083.0,-1042.0,-955.0,-888.0,-700.0,-618.0,-486.0,-422.0,-342.0,-300.0,-294.0,-287.0,-307.0,-330.0,-359.0,-379.0,-388.0,-398.0,-412.0,-422.0,-436.0,-434.0,-456.0,-454.0,-441.0,-451.0,-377.0,-224.0,-178.0,-178.0,-174.0,-176.0,-173.0,-168.0,-164.0,-118.0,-205.0,-196.0,-208.0,-226.0,-283.0,-276.0,-227.0,-190.0,-201.0,-222.0,-238.0,-254.0,-291.0,-308.0,-305.0,-300.0,-264.0,-221.0,-183.0,-196.0,-207.0,-213.0,-224.0,-246.0,-269.0,-264.0,-275.0,-231.0,-214.0,-244.0,-291.0,-360.0,-506.0,-594.0,-701.0,-719.0,-675.0,-627.0,-714.0,-1223.0,-1304.0
-427.0,-432.0,-438.0,-459.0,-526.0,-652.0,-696.0,-748.0,-811.0,-909.0,-958.0,-993.0,-1042.0,-1129.0,-1166.0,-1196.0,-1220.0,-1236.0,-1258.0,-1309.0,-1341.0,-1353.0,-1359.0,-1380.0,-1395.0,-1066.0,-999.0,-976.0,-957.0,-987.0,-1070.0,-1104.0,-1173.0,-1301.0,-1340.0,-1397.0,-1469.0,-1597.0,-1632.0,-1711.0,-1731.0,-1756.0,-1741.0,-1818.0,-1896.0,-1904.0,-1950.0,-1985.0,-2050.0,-2041.0,-2113.0,-2104.0,-2128.0,-2165.0,-2090.0,-2081.0,-2032.0,-1997.0,-1908.0,-1831.0,-1642.0,-1599.0,-1564.0,-1560.0,-1647.0,-1579.0,-1511.0,-1559.0,-1388.0,-1313.0,-1279.0,-1215.0,-1133.0,-1120.0,-1097.0,-1097.0,-1092.0,-1103.0,-1102.0,-1099.0,-1070.0,-1055.0,-1052.0,-1045.0,-1028.0,-1049.0,-1083.0,-1183.0,-1487.0,-1620.0,-1521.0,-1375.0,-1266.0,-985.0,-582.0,-167.0,-55.0,-55.0,-47.0,-42.0,-196.0,-249.0,-426.0,-88.0,-48.0,-51.0,-52.0,-47.0,-169.0,-108.0,-6.0,66.0,419.0,663.0,440.0,609.0,1168.0,789.0,1006.0,1115.0,1091.0,1104.0,1029.0,935.0,1022.0,1304.0,821.0,571.0,620.0,930.0,973.0,962.0,652.0,505.0,267.0,519.0,238.0,499.0,839.0,1140.0,826.0,628.0,578.0,573.0,534.0,455.0,416.0,399.0,390.0,396.0,414.0,441.0,477.0,496.0,514.0,529.0,509.0,484.0,485.0,490.0,510.0,566.0,591.0,602.0,619.0,629.0,622.0,613.0,596.0,554.0,508.0,372.0,421.0,501.0,547.0,524.0,489.0,525.0,541.0,672.0,693.0,744.0,761.0,803.0,854.0,840.0,865.0,988.0,1041.0,1104.0,925.0,1154.0,1111.0,1078.0,1152.0,1493.0,1446.0,1338.0,1338.0,1138.0,931.0,800.0,708.0,988.0,876.0,919.0,972.0,837.0,635.0,-139.0,-242.0,278.0,530.0,566.0,599.0,519.0,195.0,2.0,49.0,125.0,138.0,4.0,-559.0,-551.0,-547.0,-544.0,-542.0,-512.0,-517.0,-257.0,-283.0,-336.0,-358.0,-373.0,-395.0,-497.0,-473.0,-465.0,-481.0,-522.0,-566.0,-613.0,-652.0,-780.0,-828.0,-830.0,-849.0,-880.0,-869.0,-851.0,-789.0,-593.0,-516.0,-464.0,-440.0,-405.0,-395.0,-380.0,-362.0,-322.0,-316.0,-312.0,-284.0,-266.0,-270.0,-294.0,-334.0,-357.0,-346.0,-347.0,-349.0,-432.0,-836.0,-1256.0,-1444.0,-1598.0,-1649.0,-1690.0,-1706.0,-1760.0,-1784.0,-1822.0,-1851.0,-1914.0,-1920.0,-1912.0,-1918.0,-1971.0,-2049.0,-2047.0,-2101.0,-2178.0,-2216.0,-2205.0,-2252.0,-2298.0,-2314.0,-2336.0,-2393.0,-2418.0,-2446.0,-2477.0,-2519.0,-2529.0,-2542.0,-2561.0,-2597.0,-2620.0,-2647.0,-2670.0,-2681.0,-2679.0,-2667.0,-2652.0,-2668.0,-2643.0,-2584.0,-2574.0,-2571.0,-2526.0,-2375.0,-2271.0,-2238.0,-2318.0,-2249.0,-2061.0,-2150.0,-2046.0,-2026.0,-2003.0,-1874.0,-1832.0,-1785.0,-1717.0,-1598.0,-1594.0,-1567.0,-1514.0,-1455.0,-1483.0,-1449.0,-1433.0,-1403.0,-1391.0,-1321.0,-1301.0,-1281.0,-1273.0,-1267.0,-1269.0,-1236.0,-1223.0,-1220.0,-1199.0,-1125.0,-1075.0,-988.0,-945.0,-800.0,-718.0,-659.0,-551.0,-430.0,-362.0,-322.0,-325.0,-330.0,-350.0,-377.0,-387.0,-402.0,-416.0,-430.0,-433.0,-448.0,-439.0,-418.0,-343.0,-375.0,-419.0,-350.0,-231.0,-182.0,-183.0,-182.0,-180.0,-180.0,-165.0,-139.0,-70.0,-191.0,-197.0,-212.0,-277.0,-311.0,-266.0,-214.0,-181.0,-204.0,-217.0,-240.0,-257.0,-303.0,-314.0,-311.0,-310.0,-275.0,-193.0,-162.0,-200.0,-216.0,-221.0,-243.0,-423.0,-496.0,-493.0,-478.0,-427.0,-400.0,-375.0,-368.0,-436.0,-665.0,-785.0,-745.0,-786.0,-742.0,-678.0,-750.0,-1194.0,-1311.0
-438.0,-459.0,-476.0,-511.0,-495.0,-669.0,-709.0,-759.0,-823.0,-934.0,-982.0,-1032.0,-1082.0,-1160.0,-1189.0,-1220.0,-1236.0,-1291.0,-1306.0,-1332.0,-1354.0,-1338.0,-1340.0,-1358.0,-1365.0,-1035.0,-1015.0,-1068.0,-1052.0,-1093.0,-1173.0,-1292.0,-1336.0,-1503.0,-1647.0,-1657.0,-1629.0,-1667.0,-1641.0,-1723.0,-1763.0,-1823.0,-1886.0,-1921.0,-1998.0,-2025.0,-2049.0,-2073.0,-2107.0,-2148.0,-2153.0,-2156.0,-2147.0,-2155.0,-2166.0,-2196.0,-2142.0,-2123.0,-2061.0,-2053.0,-1963.0,-1932.0,-1899.0,-1879.0,-1830.0,-1711.0,-1679.0,-1760.0,-1656.0,-1349.0,-1361.0,-1311.0,-1203.0,-1191.0,-1171.0,-1165.0,-1155.0,-1130.0,-1128.0,-1115.0,-1098.0,-1071.0,-1038.0,-1039.0,-1018.0,-1034.0,-1106.0,-1145.0,-1389.0,-1648.0,-1627.0,-1417.0,-1376.0,-1188.0,-763.0,-327.0,-66.0,-46.0,-50.0,-50.0,-219.0,-346.0,-452.0,-430.0,-44.0,-47.0,-94.0,-133.0,14.0,10.0,13.0,12.0,443.0,408.0,677.0,429.0,879.0,1067.0,1134.0,1014.0,1107.0,1128.0,929.0,439.0,556.0,721.0,724.0,639.0,970.0,893.0,783.0,673.0,637.0,897.0,544.0,558.0,523.0,682.0,910.0,904.0,432.0,523.0,576.0,583.0,522.0,486.0,445.0,412.0,373.0,377.0,400.0,428.0,482.0,504.0,533.0,553.0,433.0,480.0,500.0,520.0,525.0,525.0,548.0,586.0,596.0,590.0,586.0,540.0,533.0,524.0,523.0,651.0,586.0,510.0,467.0,409.0,420.0,433.0,444.0,566.0,729.0,800.0,676.0,928.0,1076.0,887.0,895.0,969.0,1061.0,1100.0,1188.0,1152.0,1404.0,1334.0,1337.0,1513.0,1374.0,1399.0,1435.0,1614.0,1394.0,1302.0,1127.0,899.0,942.0,944.0,977.0,499.0,161.0,156.0,-10.0,103.0,155.0,46.0,109.0,104.0,74.0,83.0,-10.0,-11.0,5.0,4.0,-536.0,-528.0,-524.0,-521.0,-519.0,-511.0,-507.0,-503.0,-499.0,-455.0,-457.0,-463.0,-386.0,-446.0,-425.0,-429.0,-463.0,-503.0,-553.0,-604.0,-635.0,-705.0,-709.0,-691.0,-668.0,-730.0,-743.0,-726.0,-707.0,-614.0,-574.0,-522.0,-492.0,-447.0,-436.0,-420.0,-409.0,-404.0,-400.0,-388.0,-381.0,-360.0,-350.0,-294.0,-285.0,-337.0,-342.0,-368.0,-676.0,-1277.0,-1478.0,-1491.0,-1554.0,-1690.0,-1699.0,-1745.0,-1786.0,-1851.0,-1865.0,-1925.0,-1960.0,-1993.0,-1998.0,-2022.0,-2010.0,-2068.0,-2126.0,-2167.0,-2176.0,-2196.0,-2228.0,-2268.0,-2316.0,-2336.0,-2374.0,-2407.0,-2458.0,-2478.0,-2528.0,-2560.0,-2570.0,-2583.0,-2593.0,-2602.0,-2625.0,-2640.0,-2650.0,-2653.0,-2719.0,-2708.0,-2703.0,-2702.0,-2671.0,-2659.0,-2664.0,-2650.0,-2596.0,-2537.0,-2469.0,-2387.0,-2392.0,-2372.0,-2227.0,-2078.0,-2139.0,-2067.0,-1973.0,-1925.0,-1886.0,-1800.0,-1835.0,-1776.0,-1670.0,-1635.0,-1571.0,-1527.0,-1458.0,-1458.0,-1451.0,-1457.0,-1445.0,-1395.0,-1376.0,-1343.0,-1315.0,-1317.0,-1321.0,-1298.0,-1297.0,-1294.0,-1264.0,-1218.0,-1148.0,-1113.0,-1070.0,-1006.0,-906.0,-858.0,-819.0,-784.0,-682.0,-583.0,-489.0,-371.0,-365.0,-377.0,-397.0,-398.0,-434.0,-435.0,-406.0,-392.0,-326.0,-322.0,-328.0,-336.0,-354.0,-411.0,-336.0,-201.0,-186.0,-187.0,-196.0,-197.0,-206.0,-213.0,-132.0,-193.0,-201.0,-222.0,-261.0,-319.0,-326.0,-318.0,-292.0,-194.0,-187.0,-230.0,-258.0,-271.0,-309.0,-320.0,-319.0,-312.0,-292.0,-203.0,-198.0,-246.0,-474.0,-579.0,-585.0,-679.0,-783.0,-826.0,-821.0,-700.0,-684.0,-738.0,-773.0,-725.0,-812.0,-833.0,-961.0,-961.0,-844.0,-788.0,-917.0,-1295.0,-1313.0
-445.0,-453.0,-495.0,-498.0,-592.0,-621.0,-697.0,-780.0,-838.0,-942.0,-991.0,-1035.0,-1083.0,-1165.0,-1192.0,-1230.0,-1255.0,-1303.0,-1318.0,-1350.0,-1385.0,-1390.0,-1346.0,-1318.0,-1257.0,-1035.0,-1008.0,-1016.0,-1040.0,-1143.0,-1249.0,-1366.0,-1450.0,-1595.0,-1632.0,-1646.0,-1663.0,-1706.0,-1723.0,-1804.0,-1795.0,-1845.0,-1910.0,-1962.0,-2059.0,-2083.0,-2092.0,-2098.0,-2161.0,-2163.0,-2178.0,-2197.0,-2202.0,-2212.0,-2192.0,-2221.0,-2150.0,-2157.0,-2142.0,-2156.0,-2095.0,-2091.0,-2057.0,-1995.0,-1849.0,-1811.0,-1812.0,-2009.0,-1745.0,-1481.0,-1385.0,-1362.0,-1240.0,-1222.0,-1239.0,-1207.0,-1182.0,-1153.0,-1142.0,-1126.0,-1072.0,-1050.0,-1035.0,-1022.0,-1034.0,-1072.0,-1085.0,-1159.0,-1363.0,-1655.0,-1689.0,-1529.0,-1383.0,-1115.0,-500.0,-300.0,-334.0,-349.0,-334.0,-308.0,-357.0,-468.0,-509.0,-409.0,-138.0,-91.0,-85.0,-113.0,9.0,12.0,36.0,215.0,367.0,137.0,264.0,733.0,682.0,983.0,1115.0,1033.0,844.0,521.0,468.0,852.0,670.0,755.0,712.0,758.0,913.0,788.0,711.0,617.0,603.0,563.0,741.0,815.0,652.0,732.0,519.0,352.0,431.0,547.0,617.0,649.0,546.0,529.0,470.0,436.0,384.0,385.0,408.0,434.0,487.0,510.0,537.0,566.0,580.0,554.0,544.0,550.0,540.0,538.0,537.0,530.0,564.0,566.0,577.0,530.0,513.0,500.0,494.0,505.0,502.0,473.0,415.0,349.0,402.0,453.0,465.0,637.0,873.0,880.0,850.0,927.0,965.0,898.0,843.0,918.0,994.0,1027.0,1031.0,1241.0,1259.0,1250.0,1244.0,1494.0,1463.0,1383.0,1364.0,1454.0,1366.0,1336.0,1238.0,868.0,964.0,839.0,770.0,504.0,249.0,-23.0,24.0,253.0,251.0,157.0,-10.0,350.0,277.0,295.0,8.0,-20.0,-32.0,-542.0,-525.0,-517.0,-513.0,-510.0,-508.0,-500.0,-496.0,-492.0,-488.0,-480.0,-476.0,-469.0,-425.0,-411.0,-405.0,-409.0,-420.0,-461.0,-480.0,-536.0,-528.0,-619.0,-646.0,-648.0,-648.0,-658.0,-680.0,-673.0,-656.0,-587.0,-555.0,-528.0,-494.0,-452.0,-432.0,-416.0,-408.0,-393.0,-390.0,-388.0,-385.0,-381.0,-372.0,-370.0,-321.0,-422.0,-645.0,-908.0,-1308.0,-1481.0,-1573.0,-1571.0,-1621.0,-1720.0,-1771.0,-1782.0,-1802.0,-1907.0,-1921.0,-1979.0,-2007.0,-2027.0,-2072.0,-2103.0,-2095.0,-2128.0,-2165.0,-2192.0,-2218.0,-2255.0,-2280.0,-2280.0,-2332.0,-2359.0,-2388.0,-2454.0,-2521.0,-2553.0,-2605.0,-2626.0,-2623.0,-2624.0,-2621.0,-2621.0,-2645.0,-2661.0,-2673.0,-2686.0,-2721.0,-2709.0,-2716.0,-2713.0,-2686.0,-2680.0,-2678.0,-2641.0,-2570.0,-2614.0,-2489.0,-2427.0,-2406.0,-2382.0,-2160.0,-2175.0,-2098.0,-2040.0,-1953.0,-1946.0,-1887.0,-1801.0,-1798.0,-1802.0,-1721.0,-1663.0,-1646.0,-1606.0,-1480.0,-1488.0,-1447.0,-1461.0,-1460.0,-1407.0,-1387.0,-1383.0,-1372.0,-1388.0,-1372.0,-1357.0,-1365.0,-1333.0,-1308.0,-1224.0,-1171.0,-1123.0,-1077.0,-1034.0,-955.0,-910.0,-880.0,-871.0,-705.0,-647.0,-550.0,-406.0,-382.0,-396.0,-409.0,-398.0,-404.0,-386.0,-340.0,-341.0,-308.0,-314.0,-324.0,-339.0,-352.0,-382.0,-291.0,-213.0,-193.0,-191.0,-195.0,-197.0,-201.0,-151.0,-146.0,-208.0,-217.0,-250.0,-275.0,-321.0,-347.0,-325.0,-298.0,-245.0,-214.0,-237.0,-262.0,-273.0,-308.0,-320.0,-319.0,-310.0,-301.0,-192.0,-246.0,-387.0,-627.0,-720.0,-695.0,-772.0,-770.0,-939.0,-901.0,-862.0,-831.0,-896.0,-896.0,-851.0,-874.0,-908.0,-940.0,-998.0,-888.0,-847.0,-995.0,-1255.0,-1349.0
-452.0,-463.0,-470.0,-481.0,-543.0,-638.0,-724.0,-778.0,-845.0,-953.0,-1008.0,-1056.0,-1103.0,-1192.0,-1212.0,-1254.0,-1293.0,-1312.0,-1341.0,-1367.0,-1391.0,-1414.0,-1426.0,-1447.0,-1382.0,-1047.0,-1045.0,-1109.0,-1098.0,-1205.0,-1337.0,-1453.0,-1573.0,-1642.0,-1659.0,-1712.0,-1737.0,-1786.0,-1748.0,-1811.0,-1906.0,-1917.0,-1946.0,-1991.0,-2074.0,-2117.0,-2148.0,-2125.0,-2159.0,-2231.0,-2221.0,-2225.0,-2212.0,-2236.0,-2210.0,-2246.0,-2202.0,-2159.0,-2155.0,-2173.0,-2172.0,-2165.0,-2100.0,-2060.0,-1947.0,-1878.0,-1999.0,-2168.0,-1644.0,-1430.0,-1310.0,-1299.0,-1283.0,-1307.0,-1301.0,-1279.0,-1221.0,-1184.0,-1158.0,-1134.0,-1078.0,-1051.0,-1045.0,-1031.0,-1029.0,-1048.0,-1101.0,-1183.0,-1358.0,-1620.0,-1754.0,-1672.0,-1447.0,-1313.0,-623.0,-295.0,-337.0,-356.0,-371.0,-403.0,-479.0,-526.0,-452.0,-521.0,-105.0,-52.0,-73.0,-170.0,3.0,6.0,30.0,70.0,229.0,547.0,877.0,468.0,934.0,741.0,803.0,247.0,750.0,462.0,1003.0,1127.0,800.0,1246.0,813.0,793.0,983.0,598.0,702.0,713.0,906.0,853.0,865.0,1072.0,430.0,620.0,278.0,523.0,806.0,706.0,697.0,704.0,564.0,532.0,520.0,470.0,393.0,390.0,423.0,452.0,497.0,519.0,539.0,586.0,650.0,624.0,591.0,572.0,555.0,553.0,552.0,531.0,534.0,543.0,547.0,523.0,503.0,471.0,441.0,360.0,401.0,455.0,443.0,347.0,428.0,527.0,668.0,719.0,790.0,850.0,912.0,895.0,894.0,804.0,761.0,757.0,1013.0,899.0,816.0,1045.0,1125.0,1287.0,1207.0,1402.0,1400.0,1371.0,1394.0,1430.0,1442.0,1451.0,1220.0,911.0,784.0,841.0,807.0,549.0,359.0,244.0,118.0,-14.0,-14.0,121.0,7.0,154.0,185.0,107.0,-10.0,-32.0,-59.0,-91.0,-514.0,-505.0,-501.0,-498.0,-496.0,-488.0,-485.0,-481.0,-477.0,-470.0,-474.0,-470.0,-463.0,-370.0,-378.0,-369.0,-381.0,-394.0,-412.0,-424.0,-450.0,-528.0,-558.0,-588.0,-592.0,-584.0,-595.0,-583.0,-574.0,-533.0,-519.0,-510.0,-504.0,-443.0,-424.0,-417.0,-402.0,-380.0,-379.0,-377.0,-373.0,-375.0,-371.0,-376.0,-557.0,-1112.0,-1286.0,-1449.0,-1544.0,-1519.0,-1591.0,-1606.0,-1630.0,-1811.0,-1801.0,-1844.0,-1846.0,-1930.0,-2007.0,-1990.0,-2014.0,-2069.0,-2089.0,-2108.0,-2139.0,-2137.0,-2185.0,-2209.0,-2266.0,-2293.0,-2290.0,-2298.0,-2360.0,-2385.0,-2412.0,-2451.0,-2513.0,-2567.0,-2613.0,-2621.0,-2674.0,-2666.0,-2650.0,-2637.0,-2658.0,-2682.0,-2693.0,-2698.0,-2702.0,-2698.0,-2709.0,-2710.0,-2695.0,-2688.0,-2661.0,-2611.0,-2532.0,-2493.0,-2412.0,-2407.0,-2353.0,-2237.0,-2183.0,-2104.0,-2114.0,-2119.0,-2025.0,-1970.0,-1905.0,-1815.0,-1788.0,-1768.0,-1762.0,-1712.0,-1689.0,-1663.0,-1508.0,-1497.0,-1463.0,-1467.0,-1505.0,-1432.0,-1399.0,-1424.0,-1409.0,-1393.0,-1392.0,-1387.0,-1316.0,-1299.0,-1300.0,-1221.0,-1172.0,-1128.0,-1098.0,-1068.0,-1012.0,-989.0,-937.0,-912.0,-754.0,-683.0,-605.0,-487.0,-369.0,-380.0,-400.0,-382.0,-354.0,-326.0,-336.0,-314.0,-303.0,-314.0,-321.0,-342.0,-349.0,-371.0,-303.0,-224.0,-197.0,-197.0,-197.0,-199.0,-193.0,-133.0,-217.0,-224.0,-244.0,-268.0,-305.0,-297.0,-322.0,-308.0,-314.0,-292.0,-484.0,-299.0,-283.0,-290.0,-313.0,-320.0,-321.0,-312.0,-246.0,-240.0,-357.0,-522.0,-732.0,-803.0,-816.0,-903.0,-905.0,-933.0,-921.0,-912.0,-897.0,-921.0,-923.0,-905.0,-924.0,-958.0,-988.0,-991.0,-929.0,-902.0,-1086.0,-1232.0,-1321.0
-454.0,-538.0,-571.0,-644.0,-518.0,-639.0,-705.0,-786.0,-844.0,-959.0,-1017.0,-1070.0,-1117.0,-1202.0,-1238.0,-1253.0,-1297.0,-1336.0,-1362.0,-1382.0,-1398.0,-1426.0,-1435.0,-1438.0,-1369.0,-1201.0,-1096.0,-1218.0,-1153.0,-1286.0,-1402.0,-1486.0,-1604.0,-1675.0,-1687.0,-1690.0,-1805.0,-1858.0,-1849.0,-1893.0,-1942.0,-1959.0,-1973.0,-2015.0,-2099.0,-2154.0,-2184.0,-2170.0,-2229.0,-2244.0,-2208.0,-2211.0,-2236.0,-2253.0,-2233.0,-2229.0,-2226.0,-2223.0,-2197.0,-2227.0,-2199.0,-2221.0,-2151.0,-2119.0,-2043.0,-2015.0,-2072.0,-2177.0,-1576.0,-1414.0,-1346.0,-1306.0,-1337.0,-1349.0,-1343.0,-1359.0,-1296.0,-1242.0,-1192.0,-1142.0,-1096.0,-1070.0,-1075.0,-1053.0,-1026.0,-1052.0,-1118.0,-1197.0,-1382.0,-1774.0,-1786.0,-1705.0,-1492.0,-1375.0,-646.0,-289.0,-322.0,-332.0,-360.0,-387.0,-503.0,-519.0,-403.0,-418.0,-236.0,-166.0,-80.0,-249.0,-4.0,4.0,24.0,12.0,205.0,197.0,337.0,847.0,796.0,655.0,764.0,962.0,1219.0,1091.0,1025.0,1104.0,1056.0,1072.0,1164.0,1122.0,841.0,715.0,706.0,778.0,953.0,929.0,881.0,731.0,460.0,807.0,772.0,868.0,862.0,732.0,683.0,692.0,606.0,563.0,538.0,513.0,440.0,434.0,465.0,488.0,506.0,514.0,525.0,539.0,691.0,645.0,605.0,577.0,554.0,554.0,554.0,542.0,544.0,541.0,535.0,505.0,484.0,459.0,424.0,322.0,392.0,486.0,546.0,417.0,447.0,547.0,684.0,671.0,705.0,768.0,810.0,817.0,751.0,685.0,640.0,836.0,796.0,916.0,759.0,876.0,683.0,1071.0,1057.0,1170.0,1170.0,1281.0,1482.0,1254.0,1391.0,1305.0,1216.0,972.0,873.0,865.0,919.0,651.0,411.0,213.0,58.0,-11.0,-12.0,47.0,28.0,0.0,61.0,78.0,0.0,-42.0,-81.0,-108.0,-266.0,-494.0,-490.0,-487.0,-485.0,-488.0,-282.0,-306.0,-331.0,-375.0,-394.0,-409.0,-391.0,-355.0,-349.0,-350.0,-354.0,-372.0,-378.0,-390.0,-406.0,-480.0,-509.0,-527.0,-519.0,-541.0,-521.0,-525.0,-524.0,-501.0,-490.0,-470.0,-467.0,-435.0,-420.0,-411.0,-397.0,-388.0,-384.0,-379.0,-376.0,-368.0,-374.0,-566.0,-882.0,-1368.0,-1482.0,-1534.0,-1475.0,-1564.0,-1580.0,-1711.0,-1694.0,-1811.0,-1828.0,-1852.0,-1876.0,-1950.0,-1997.0,-2013.0,-2043.0,-2091.0,-2132.0,-2182.0,-2193.0,-2185.0,-2204.0,-2224.0,-2314.0,-2298.0,-2303.0,-2315.0,-2387.0,-2402.0,-2421.0,-2448.0,-2486.0,-2538.0,-2587.0,-2601.0,-2677.0,-2683.0,-2668.0,-2649.0,-2677.0,-2704.0,-2706.0,-2698.0,-2686.0,-2687.0,-2696.0,-2703.0,-2699.0,-2682.0,-2638.0,-2596.0,-2521.0,-2482.0,-2388.0,-2439.0,-2314.0,-2286.0,-2252.0,-2190.0,-2159.0,-2138.0,-2050.0,-1980.0,-1881.0,-1844.0,-1810.0,-1787.0,-1629.0,-1723.0,-1734.0,-1685.0,-1539.0,-1504.0,-1474.0,-1477.0,-1505.0,-1479.0,-1450.0,-1419.0,-1410.0,-1421.0,-1423.0,-1411.0,-1417.0,-1412.0,-1380.0,-1315.0,-1168.0,-1133.0,-1104.0,-1080.0,-1056.0,-1017.0,-1016.0,-920.0,-787.0,-733.0,-663.0,-570.0,-357.0,-355.0,-359.0,-363.0,-319.0,-322.0,-316.0,-304.0,-302.0,-312.0,-329.0,-348.0,-346.0,-353.0,-298.0,-234.0,-201.0,-200.0,-205.0,-194.0,-121.0,-115.0,-221.0,-232.0,-270.0,-278.0,-315.0,-299.0,-305.0,-317.0,-323.0,-444.0,-645.0,-584.0,-467.0,-317.0,-319.0,-320.0,-325.0,-322.0,-282.0,-345.0,-503.0,-636.0,-759.0,-862.0,-906.0,-956.0,-974.0,-1000.0,-1021.0,-989.0,-976.0,-962.0,-961.0,-936.0,-958.0,-997.0,-1055.0,-1026.0,-1074.0,-1106.0,-1164.0,-1315.0,-1343.0
-478.0,-472.0,-499.0,-552.0,-508.0,-730.0,-876.0,-858.0,-863.0,-984.0,-1048.0,-1101.0,-1153.0,-1238.0,-1264.0,-1299.0,-1336.0,-1378.0,-1397.0,-1420.0,-1431.0,-1460.0,-1477.0,-1490.0,-1412.0,-1197.0,-1257.0,-1323.0,-1255.0,-1460.0,-1544.0,-1661.0,-1784.0,-1808.0,-1801.0,-1860.0,-1906.0,-2004.0,-1978.0,-2011.0,-2079.0,-2081.0,-2093.0,-2117.0,-2262.0,-2288.0,-2248.0,-2225.0,-2277.0,-2289.0,-2257.0,-2256.0,-2294.0,-2264.0,-2276.0,-2278.0,-2277.0,-2280.0,-2337.0,-2283.0,-2314.0,-2261.0,-2248.0,-2285.0,-2188.0,-2144.0,-2091.0,-2207.0,-2105.0,-1768.0,-1580.0,-1575.0,-1500.0,-1521.0,-1479.0,-1489.0,-1362.0,-1305.0,-1273.0,-1232.0,-1159.0,-1157.0,-1136.0,-1103.0,-1059.0,-1102.0,-1179.0,-1210.0,-1366.0,-1622.0,-1896.0,-1838.0,-1699.0,-1629.0,-1377.0,-477.0,-204.0,-217.0,-245.0,-243.0,-74.0,-58.0,-51.0,-35.0,-476.0,-117.0,-200.0,-48.0,-13.0,4.0,16.0,38.0,62.0,160.0,13.0,348.0,709.0,1056.0,209.0,894.0,1363.0,1287.0,1171.0,981.0,968.0,966.0,981.0,906.0,734.0,589.0,641.0,931.0,1032.0,803.0,433.0,509.0,523.0,874.0,873.0,672.0,710.0,794.0,796.0,772.0,698.0,655.0,642.0,646.0,652.0,643.0,618.0,584.0,530.0,512.0,493.0,489.0,488.0,535.0,544.0,542.0,541.0,543.0,548.0,561.0,551.0,543.0,528.0,508.0,498.0,488.0,474.0,486.0,551.0,573.0,459.0,441.0,460.0,434.0,322.0,463.0,474.0,399.0,388.0,477.0,562.0,560.0,423.0,584.0,777.0,965.0,952.0,1136.0,1106.0,1037.0,906.0,988.0,979.0,992.0,1186.0,1168.0,1137.0,1238.0,1081.0,896.0,806.0,841.0,752.0,906.0,768.0,577.0,692.0,363.0,401.0,223.0,-18.0,144.0,301.0,247.0,10.0,-56.0,-103.0,-217.0,-546.0,-377.0,-261.0,-237.0,-240.0,-279.0,-303.0,-330.0,-356.0,-393.0,-399.0,-379.0,-337.0,-319.0,-329.0,-332.0,-351.0,-329.0,-338.0,-350.0,-356.0,-389.0,-427.0,-458.0,-465.0,-443.0,-459.0,-482.0,-490.0,-468.0,-454.0,-441.0,-420.0,-416.0,-412.0,-408.0,-400.0,-384.0,-383.0,-380.0,-374.0,-380.0,-590.0,-916.0,-1221.0,-1491.0,-1555.0,-1580.0,-1600.0,-1693.0,-1752.0,-1725.0,-1731.0,-1813.0,-1840.0,-1861.0,-1880.0,-1939.0,-1974.0,-2021.0,-2055.0,-2150.0,-2202.0,-2232.0,-2255.0,-2269.0,-2315.0,-2370.0,-2358.0,-2358.0,-2382.0,-2392.0,-2397.0,-2420.0,-2459.0,-2483.0,-2540.0,-2597.0,-2593.0,-2604.0,-2638.0,-2646.0,-2660.0,-2696.0,-2710.0,-2731.0,-2732.0,-2687.0,-2670.0,-2667.0,-2666.0,-2675.0,-2694.0,-2678.0,-2613.0,-2564.0,-2491.0,-2421.0,-2371.0,-2376.0,-2128.0,-2298.0,-2330.0,-2288.0,-2177.0,-2125.0,-2092.0,-1982.0,-1902.0,-1899.0,-1809.0,-1846.0,-1782.0,-1798.0,-1790.0,-1718.0,-1651.0,-1631.0,-1516.0,-1525.0,-1505.0,-1501.0,-1497.0,-1497.0,-1494.0,-1475.0,-1502.0,-1507.0,-1480.0,-1470.0,-1374.0,-1265.0,-1168.0,-1163.0,-1162.0,-1143.0,-1107.0,-1090.0,-1059.0,-1024.0,-894.0,-839.0,-772.0,-691.0,-508.0,-392.0,-331.0,-323.0,-304.0,-303.0,-299.0,-296.0,-312.0,-325.0,-336.0,-332.0,-323.0,-315.0,-280.0,-248.0,-231.0,-222.0,-199.0,-193.0,-214.0,-230.0,-240.0,-261.0,-326.0,-336.0,-305.0,-312.0,-404.0,-511.0,-660.0,-763.0,-790.0,-738.0,-712.0,-659.0,-489.0,-396.0,-342.0,-352.0,-622.0,-709.0,-754.0,-784.0,-874.0,-853.0,-976.0,-1029.0,-1096.0,-1078.0,-1108.0,-1052.0,-1023.0,-1037.0,-1032.0,-1007.0,-1042.0,-1086.0,-1152.0,-1168.0,-1190.0,-1184.0,-1247.0,-1346.0,-1387.0
-477.0,-488.0,-546.0,-592.0,-594.0,-653.0,-765.0,-845.0,-877.0,-1004.0,-1061.0,-1123.0,-1185.0,-1272.0,-1323.0,-1342.0,-1351.0,-1405.0,-1448.0,-1453.0,-1454.0,-1480.0,-1512.0,-1429.0,-1415.0,-1270.0,-1257.0,-1299.0,-1391.0,-1538.0,-1644.0,-1838.0,-1843.0,-1863.0,-1858.0,-1988.0,-1971.0,-2035.0,-2010.0,-2117.0,-2135.0,-2222.0,-2271.0,-2171.0,-2231.0,-2248.0,-2255.0,-2291.0,-2305.0,-2330.0,-2324.0,-2310.0,-2332.0,-2320.0,-2315.0,-2337.0,-2337.0,-2328.0,-2334.0,-2329.0,-2313.0,-2314.0,-2307.0,-2299.0,-2270.0,-2283.0,-2165.0,-2311.0,-2195.0,-1922.0,-1754.0,-1699.0,-1593.0,-1575.0,-1551.0,-1534.0,-1392.0,-1354.0,-1286.0,-1277.0,-1231.0,-1194.0,-1162.0,-1146.0,-1117.0,-1109.0,-1199.0,-1213.0,-1376.0,-1568.0,-1893.0,-1930.0,-1761.0,-1620.0,-1350.0,-640.0,-80.0,-82.0,-69.0,-68.0,-60.0,-60.0,-51.0,-51.0,-402.0,-466.0,-105.0,-83.0,-43.0,-9.0,11.0,51.0,129.0,112.0,832.0,617.0,789.0,1088.0,653.0,1064.0,1016.0,1177.0,1035.0,814.0,816.0,837.0,871.0,909.0,728.0,591.0,541.0,957.0,1118.0,1076.0,709.0,505.0,970.0,933.0,945.0,979.0,830.0,797.0,804.0,800.0,732.0,718.0,695.0,698.0,807.0,796.0,698.0,631.0,542.0,510.0,480.0,461.0,463.0,483.0,503.0,516.0,533.0,540.0,547.0,563.0,559.0,541.0,529.0,513.0,512.0,516.0,524.0,549.0,689.0,787.0,557.0,513.0,528.0,538.0,562.0,529.0,511.0,540.0,608.0,662.0,638.0,607.0,835.0,608.0,491.0,734.0,748.0,902.0,959.0,1044.0,1036.0,1028.0,989.0,947.0,945.0,1056.0,989.0,1080.0,1042.0,864.0,820.0,1007.0,995.0,816.0,818.0,1008.0,945.0,738.0,524.0,376.0,173.0,436.0,551.0,464.0,270.0,-32.0,-142.0,-281.0,-765.0,-387.0,-284.0,-256.0,-254.0,-288.0,-311.0,-340.0,-369.0,-400.0,-396.0,-347.0,-317.0,-310.0,-332.0,-337.0,-349.0,-312.0,-316.0,-327.0,-336.0,-368.0,-388.0,-425.0,-441.0,-428.0,-421.0,-444.0,-464.0,-465.0,-454.0,-437.0,-420.0,-403.0,-400.0,-389.0,-387.0,-376.0,-371.0,-370.0,-368.0,-442.0,-768.0,-1094.0,-1358.0,-1596.0,-1608.0,-1648.0,-1671.0,-1747.0,-1755.0,-1753.0,-1754.0,-1832.0,-1874.0,-1881.0,-1885.0,-1936.0,-1968.0,-2016.0,-2055.0,-2165.0,-2224.0,-2263.0,-2295.0,-2340.0,-2386.0,-2390.0,-2393.0,-2398.0,-2417.0,-2437.0,-2460.0,-2476.0,-2510.0,-2534.0,-2599.0,-2608.0,-2600.0,-2610.0,-2656.0,-2671.0,-2696.0,-2677.0,-2675.0,-2690.0,-2726.0,-2723.0,-2689.0,-2687.0,-2680.0,-2661.0,-2627.0,-2661.0,-2575.0,-2582.0,-2432.0,-2376.0,-2325.0,-2317.0,-2192.0,-2258.0,-2394.0,-2333.0,-2174.0,-2131.0,-2099.0,-2015.0,-1907.0,-1896.0,-1884.0,-1902.0,-1836.0,-1872.0,-1788.0,-1682.0,-1611.0,-1589.0,-1552.0,-1572.0,-1533.0,-1492.0,-1455.0,-1485.0,-1511.0,-1525.0,-1541.0,-1534.0,-1505.0,-1484.0,-1385.0,-1248.0,-1192.0,-1194.0,-1166.0,-1160.0,-1128.0,-1113.0,-1095.0,-1067.0,-956.0,-900.0,-850.0,-768.0,-608.0,-529.0,-424.0,-344.0,-312.0,-307.0,-303.0,-301.0,-313.0,-323.0,-321.0,-309.0,-300.0,-313.0,-290.0,-259.0,-250.0,-246.0,-227.0,-215.0,-199.0,-233.0,-251.0,-274.0,-362.0,-388.0,-407.0,-411.0,-537.0,-744.0,-806.0,-819.0,-854.0,-826.0,-789.0,-755.0,-651.0,-617.0,-605.0,-612.0,-748.0,-799.0,-839.0,-847.0,-908.0,-898.0,-904.0,-1013.0,-1092.0,-1086.0,-1106.0,-1066.0,-1057.0,-1034.0,-1015.0,-1016.0,-1086.0,-1156.0,-1185.0,-1164.0,-1178.0,-1227.0,-1261.0,-1362.0,-1395.0
-489.0,-489.0,-501.0,-564.0,-609.0,-727.0,-842.0,-830.0,-904.0,-1027.0,-1090.0,-1157.0,-1209.0,-1308.0,-1383.0,-1442.0,-1411.0,-1419.0,-1455.0,-1463.0,-1471.0,-1516.0,-1505.0,-1498.0,-1428.0,-1297.0,-1343.0,-1422.0,-1532.0,-1749.0,-1798.0,-1896.0,-1875.0,-1939.0,-1962.0,-2000.0,-2122.0,-2124.0,-2073.0,-2084.0,-2159.0,-2194.0,-2265.0,-2267.0,-2365.0,-2320.0,-2311.0,-2334.0,-2340.0,-2372.0,-2379.0,-2349.0,-2386.0,-2375.0,-2369.0,-2359.0,-2367.0,-2349.0,-2351.0,-2390.0,-2364.0,-2349.0,-2337.0,-2321.0,-2265.0,-2231.0,-2261.0,-2351.0,-2131.0,-1900.0,-1818.0,-1751.0,-1694.0,-1637.0,-1536.0,-1504.0,-1380.0,-1426.0,-1384.0,-1335.0,-1296.0,-1234.0,-1232.0,-1225.0,-1132.0,-1151.0,-1198.0,-1243.0,-1421.0,-1631.0,-1953.0,-1981.0,-1784.0,-1535.0,-1304.0,-591.0,-117.0,-103.0,-88.0,-74.0,-62.0,-62.0,-56.0,-55.0,-107.0,-311.0,-145.0,-107.0,-52.0,10.0,26.0,9.0,-9.0,19.0,-1.0,44.0,53.0,163.0,268.0,368.0,727.0,605.0,650.0,698.0,800.0,833.0,854.0,809.0,758.0,693.0,764.0,775.0,1091.0,1142.0,852.0,650.0,918.0,940.0,900.0,757.0,862.0,863.0,847.0,792.0,742.0,735.0,728.0,750.0,792.0,779.0,709.0,650.0,563.0,520.0,480.0,440.0,431.0,448.0,473.0,492.0,520.0,530.0,540.0,558.0,549.0,545.0,545.0,533.0,535.0,547.0,573.0,799.0,858.0,925.0,748.0,609.0,624.0,676.0,730.0,676.0,587.0,636.0,611.0,766.0,696.0,820.0,778.0,973.0,706.0,807.0,808.0,857.0,814.0,780.0,980.0,1230.0,1231.0,1297.0,989.0,1034.0,1112.0,1033.0,1028.0,948.0,1034.0,1079.0,1013.0,941.0,906.0,942.0,998.0,1124.0,897.0,561.0,370.0,265.0,594.0,539.0,390.0,-26.0,-187.0,-445.0,-762.0,-365.0,-256.0,-267.0,-271.0,-294.0,-316.0,-331.0,-355.0,-338.0,-336.0,-342.0,-306.0,-299.0,-315.0,-324.0,-328.0,-302.0,-300.0,-307.0,-320.0,-349.0,-370.0,-387.0,-403.0,-409.0,-399.0,-417.0,-431.0,-452.0,-442.0,-438.0,-425.0,-395.0,-386.0,-383.0,-383.0,-367.0,-366.0,-355.0,-357.0,-665.0,-1074.0,-1319.0,-1537.0,-1702.0,-1720.0,-1739.0,-1797.0,-1794.0,-1818.0,-1809.0,-1810.0,-1874.0,-1931.0,-1965.0,-1949.0,-1977.0,-2028.0,-2065.0,-2107.0,-2224.0,-2268.0,-2301.0,-2322.0,-2403.0,-2396.0,-2397.0,-2412.0,-2428.0,-2453.0,-2471.0,-2504.0,-2517.0,-2550.0,-2580.0,-2616.0,-2617.0,-2622.0,-2633.0,-2683.0,-2704.0,-2714.0,-2705.0,-2702.0,-2711.0,-2736.0,-2758.0,-2739.0,-2744.0,-2744.0,-2729.0,-2643.0,-2620.0,-2558.0,-2551.0,-2388.0,-2373.0,-2329.0,-2304.0,-2254.0,-2283.0,-2372.0,-2346.0,-2192.0,-2125.0,-2084.0,-1990.0,-1936.0,-1968.0,-1956.0,-1899.0,-1810.0,-1861.0,-1717.0,-1664.0,-1653.0,-1611.0,-1594.0,-1609.0,-1508.0,-1556.0,-1492.0,-1511.0,-1544.0,-1562.0,-1557.0,-1549.0,-1514.0,-1496.0,-1418.0,-1274.0,-1173.0,-1196.0,-1189.0,-1183.0,-1151.0,-1129.0,-1095.0,-1084.0,-1015.0,-991.0,-918.0,-823.0,-704.0,-649.0,-590.0,-522.0,-354.0,-325.0,-313.0,-309.0,-309.0,-303.0,-303.0,-298.0,-318.0,-323.0,-299.0,-271.0,-261.0,-262.0,-272.0,-270.0,-226.0,-249.0,-272.0,-299.0,-410.0,-447.0,-470.0,-500.0,-643.0,-850.0,-887.0,-893.0,-896.0,-895.0,-868.0,-827.0,-762.0,-760.0,-767.0,-757.0,-825.0,-861.0,-899.0,-899.0,-945.0,-964.0,-965.0,-1044.0,-1071.0,-1123.0,-1117.0,-1123.0,-1093.0,-1087.0,-1061.0,-1086.0,-1160.0,-1210.0,-1214.0,-1200.0,-1260.0,-1311.0,-1349.0,-1382.0,-1399.0
-498.0,-496.0,-496.0,-493.0,-530.0,-671.0,-800.0,-859.0,-928.0,-1066.0,-1121.0,-1178.0,-1226.0,-1426.0,-1341.0,-1381.0,-1408.0,-1476.0,-1479.0,-1478.0,-1488.0,-1505.0,-1515.0,-1496.0,-1448.0,-1393.0,-1493.0,-1522.0,-1650.0,-1725.0,-1861.0,-1945.0,-1981.0,-2014.0,-2109.0,-2150.0,-2144.0,-2120.0,-2106.0,-2154.0,-2308.0,-2257.0,-2253.0,-2285.0,-2345.0,-2340.0,-2340.0,-2336.0,-2372.0,-2375.0,-2369.0,-2382.0,-2427.0,-2416.0,-2394.0,-2385.0,-2394.0,-2363.0,-2375.0,-2393.0,-2395.0,-2381.0,-2363.0,-2358.0,-2290.0,-2286.0,-2241.0,-2374.0,-1871.0,-1899.0,-1851.0,-1806.0,-1737.0,-1703.0,-1609.0,-1527.0,-1433.0,-1478.0,-1470.0,-1388.0,-1330.0,-1328.0,-1297.0,-1274.0,-1190.0,-1172.0,-1199.0,-1254.0,-1453.0,-1672.0,-2034.0,-2017.0,-1678.0,-1354.0,-1120.0,-808.0,-186.0,-121.0,-93.0,-78.0,-65.0,-64.0,-55.0,-50.0,-60.0,-191.0,-290.0,-181.0,-79.0,-8.0,-6.0,50.0,85.0,844.0,680.0,675.0,756.0,977.0,681.0,643.0,494.0,577.0,926.0,846.0,676.0,655.0,736.0,842.0,810.0,748.0,562.0,600.0,1021.0,1073.0,955.0,933.0,986.0,1001.0,969.0,813.0,912.0,881.0,837.0,811.0,765.0,758.0,745.0,763.0,670.0,658.0,691.0,665.0,576.0,527.0,483.0,439.0,410.0,428.0,452.0,473.0,506.0,519.0,531.0,553.0,541.0,539.0,540.0,535.0,539.0,553.0,574.0,735.0,839.0,713.0,690.0,684.0,713.0,792.0,873.0,832.0,801.0,888.0,863.0,982.0,782.0,640.0,868.0,1082.0,1037.0,1127.0,980.0,1096.0,944.0,907.0,936.0,1270.0,1292.0,1487.0,1346.0,1135.0,1018.0,1166.0,1296.0,1147.0,811.0,604.0,882.0,1045.0,1018.0,739.0,1000.0,873.0,1086.0,931.0,863.0,499.0,555.0,349.0,188.0,-69.0,-200.0,-535.0,-966.0,-368.0,-258.0,-273.0,-275.0,-309.0,-309.0,-289.0,-290.0,-301.0,-314.0,-317.0,-303.0,-287.0,-293.0,-308.0,-306.0,-293.0,-291.0,-290.0,-298.0,-334.0,-351.0,-363.0,-377.0,-390.0,-388.0,-389.0,-408.0,-426.0,-423.0,-420.0,-415.0,-383.0,-376.0,-376.0,-374.0,-361.0,-354.0,-350.0,-349.0,-881.0,-1155.0,-1390.0,-1680.0,-1731.0,-1753.0,-1804.0,-1800.0,-1818.0,-1870.0,-1867.0,-1875.0,-1967.0,-2005.0,-2061.0,-2086.0,-2126.0,-2139.0,-2155.0,-2182.0,-2275.0,-2299.0,-2318.0,-2376.0,-2392.0,-2401.0,-2411.0,-2439.0,-2460.0,-2485.0,-2498.0,-2532.0,-2556.0,-2586.0,-2610.0,-2616.0,-2624.0,-2641.0,-2662.0,-2701.0,-2718.0,-2732.0,-2731.0,-2741.0,-2751.0,-2763.0,-2761.0,-2728.0,-2722.0,-2713.0,-2697.0,-2699.0,-2653.0,-2592.0,-2500.0,-2442.0,-2394.0,-2311.0,-2280.0,-2291.0,-2263.0,-2257.0,-2181.0,-2181.0,-2110.0,-2066.0,-1987.0,-1963.0,-2004.0,-1973.0,-1913.0,-1880.0,-1793.0,-1694.0,-1679.0,-1702.0,-1640.0,-1593.0,-1633.0,-1568.0,-1600.0,-1556.0,-1565.0,-1589.0,-1593.0,-1587.0,-1565.0,-1562.0,-1531.0,-1426.0,-1295.0,-1180.0,-1199.0,-1212.0,-1206.0,-1188.0,-1167.0,-1139.0,-1105.0,-1094.0,-1026.0,-949.0,-887.0,-811.0,-746.0,-714.0,-660.0,-528.0,-472.0,-360.0,-329.0,-306.0,-303.0,-301.0,-299.0,-308.0,-298.0,-291.0,-277.0,-269.0,-271.0,-318.0,-314.0,-255.0,-283.0,-299.0,-343.0,-452.0,-483.0,-508.0,-551.0,-749.0,-924.0,-937.0,-948.0,-933.0,-946.0,-925.0,-892.0,-847.0,-859.0,-826.0,-831.0,-891.0,-904.0,-915.0,-912.0,-989.0,-1021.0,-1034.0,-995.0,-977.0,-1073.0,-1136.0,-1188.0,-1138.0,-1114.0,-1105.0,-1143.0,-1192.0,-1212.0,-1251.0,-1247.0,-1312.0,-1369.0,-1403.0,-1401.0,-1407.0
-507.0,-499.0,-499.0,-509.0,-567.0,-759.0,-820.0,-902.0,-977.0,-1130.0,-1196.0,-1249.0,-1287.0,-1349.0,-1469.0,-1453.0,-1504.0,-1500.0,-1522.0,-1558.0,-1546.0,-1515.0,-1476.0,-1445.0,-1487.0,-1660.0,-1693.0,-1729.0,-1843.0,-1972.0,-2026.0,-2051.0,-2112.0,-2167.0,-2118.0,-2177.0,-2234.0,-2300.0,-2301.0,-2331.0,-2326.0,-2344.0,-2342.0,-2359.0,-2354.0,-2358.0,-2364.0,-2373.0,-2399.0,-2407.0,-2417.0,-2424.0,-2421.0,-2414.0,-2429.0,-2438.0,-2363.0,-2382.0,-2396.0,-2393.0,-2390.0,-2410.0,-2404.0,-2401.0,-2343.0,-2336.0,-2329.0,-2357.0,-2251.0,-2140.0,-2036.0,-1887.0,-1807.0,-1863.0,-1831.0,-1686.0,-1697.0,-1673.0,-1665.0,-1591.0,-1468.0,-1441.0,-1403.0,-1401.0,-1259.0,-1210.0,-1240.0,-1307.0,-1568.0,-1795.0,-2162.0,-2146.0,-1723.0,-1609.0,-1555.0,-1363.0,-639.0,-433.0,-143.0,-87.0,-68.0,-65.0,-57.0,-49.0,-87.0,-153.0,-260.0,-184.0,-41.0,-38.0,-15.0,0.0,139.0,309.0,330.0,309.0,166.0,661.0,311.0,232.0,386.0,391.0,500.0,518.0,590.0,591.0,740.0,731.0,896.0,1089.0,1091.0,950.0,1089.0,1192.0,1190.0,1143.0,1136.0,1060.0,1031.0,1001.0,1104.0,1058.0,936.0,877.0,827.0,809.0,802.0,790.0,767.0,756.0,729.0,699.0,628.0,580.0,506.0,426.0,410.0,423.0,439.0,460.0,498.0,516.0,530.0,542.0,527.0,520.0,522.0,516.0,523.0,521.0,535.0,561.0,613.0,668.0,670.0,737.0,789.0,827.0,797.0,897.0,1007.0,1028.0,1097.0,953.0,880.0,823.0,962.0,800.0,846.0,924.0,1009.0,1280.0,1154.0,1175.0,1313.0,1261.0,1409.0,1322.0,1334.0,1295.0,1016.0,1053.0,1020.0,1026.0,866.0,855.0,770.0,984.0,991.0,547.0,863.0,605.0,742.0,1034.0,771.0,394.0,88.0,12.0,0.0,-83.0,-220.0,-602.0,-1012.0,-549.0,-394.0,-306.0,-253.0,-234.0,-224.0,-237.0,-250.0,-286.0,-286.0,-308.0,-296.0,-264.0,-269.0,-273.0,-273.0,-263.0,-255.0,-246.0,-250.0,-284.0,-315.0,-320.0,-333.0,-368.0,-368.0,-357.0,-351.0,-390.0,-400.0,-382.0,-386.0,-375.0,-354.0,-343.0,-343.0,-333.0,-338.0,-343.0,-531.0,-1368.0,-1566.0,-1634.0,-1691.0,-1927.0,-1965.0,-1950.0,-1939.0,-1961.0,-1983.0,-1994.0,-2004.0,-2082.0,-2100.0,-2098.0,-2099.0,-2133.0,-2181.0,-2239.0,-2286.0,-2346.0,-2380.0,-2431.0,-2411.0,-2425.0,-2440.0,-2470.0,-2495.0,-2518.0,-2543.0,-2554.0,-2604.0,-2636.0,-2664.0,-2670.0,-2668.0,-2701.0,-2704.0,-2717.0,-2726.0,-2721.0,-2718.0,-2712.0,-2710.0,-2709.0,-2701.0,-2697.0,-2716.0,-2720.0,-2717.0,-2712.0,-2677.0,-2610.0,-2559.0,-2570.0,-2445.0,-2408.0,-2381.0,-2319.0,-2355.0,-2274.0,-2193.0,-2201.0,-2179.0,-2100.0,-2080.0,-1998.0,-1991.0,-1962.0,-1991.0,-1983.0,-1832.0,-1797.0,-1706.0,-1727.0,-1751.0,-1661.0,-1626.0,-1671.0,-1596.0,-1600.0,-1590.0,-1514.0,-1603.0,-1605.0,-1603.0,-1596.0,-1582.0,-1507.0,-1301.0,-1226.0,-1205.0,-1220.0,-1226.0,-1227.0,-1230.0,-1210.0,-1183.0,-1173.0,-1150.0,-1114.0,-1059.0,-1014.0,-945.0,-927.0,-888.0,-847.0,-740.0,-693.0,-659.0,-609.0,-515.0,-404.0,-315.0,-312.0,-312.0,-312.0,-299.0,-301.0,-313.0,-322.0,-296.0,-328.0,-319.0,-345.0,-389.0,-442.0,-506.0,-537.0,-572.0,-642.0,-940.0,-980.0,-1029.0,-1014.0,-1000.0,-1022.0,-1014.0,-1009.0,-968.0,-965.0,-983.0,-993.0,-931.0,-892.0,-975.0,-1003.0,-1079.0,-1120.0,-1158.0,-1045.0,-1006.0,-1102.0,-1141.0,-1198.0,-1199.0,-1198.0,-1177.0,-1229.0,-1246.0,-1280.0,-1300.0,-1283.0,-1311.0,-1406.0,-1418.0,-1479.0,-1492.0
-514.0,-506.0,-505.0,-510.0,-544.0,-733.0,-844.0,-930.0,-1017.0,-1174.0,-1234.0,-1271.0,-1316.0,-1476.0,-1494.0,-1486.0,-1540.0,-1571.0,-1583.0,-1607.0,-1593.0,-1526.0,-1509.0,-1495.0,-1549.0,-1826.0,-1926.0,-1896.0,-1915.0,-2012.0,-2026.0,-2083.0,-2151.0,-2213.0,-2191.0,-2320.0,-2295.0,-2295.0,-2377.0,-2396.0,-2385.0,-2397.0,-2379.0,-2348.0,-2360.0,-2372.0,-2379.0,-2386.0,-2410.0,-2414.0,-2422.0,-2433.0,-2426.0,-2424.0,-2432.0,-2432.0,-2271.0,-2380.0,-2383.0,-2380.0,-2378.0,-2398.0,-2406.0,-2398.0,-2381.0,-2365.0,-2344.0,-2354.0,-2325.0,-2209.0,-2075.0,-1943.0,-1871.0,-1998.0,-1981.0,-1741.0,-1802.0,-1770.0,-1732.0,-1671.0,-1535.0,-1504.0,-1468.0,-1396.0,-1290.0,-1237.0,-1258.0,-1316.0,-1627.0,-1870.0,-2213.0,-2139.0,-1521.0,-1676.0,-1658.0,-1485.0,-700.0,-396.0,-158.0,-88.0,-67.0,-69.0,-61.0,-52.0,-143.0,-142.0,-145.0,-71.0,-87.0,-62.0,-7.0,-3.0,28.0,146.0,135.0,248.0,525.0,555.0,695.0,942.0,863.0,815.0,614.0,389.0,788.0,1133.0,742.0,689.0,866.0,1020.0,1097.0,1124.0,1187.0,1341.0,1449.0,1238.0,1172.0,1129.0,1091.0,1188.0,1062.0,994.0,923.0,890.0,839.0,823.0,801.0,802.0,725.0,717.0,731.0,720.0,673.0,632.0,586.0,530.0,451.0,437.0,448.0,465.0,503.0,522.0,537.0,533.0,530.0,520.0,527.0,521.0,519.0,510.0,522.0,578.0,596.0,624.0,627.0,713.0,786.0,839.0,816.0,722.0,736.0,961.0,1088.0,935.0,888.0,749.0,602.0,787.0,756.0,976.0,848.0,1063.0,1027.0,1111.0,1181.0,1482.0,1423.0,1471.0,1505.0,1341.0,1351.0,1307.0,1213.0,978.0,964.0,866.0,583.0,483.0,704.0,206.0,88.0,401.0,507.0,619.0,778.0,469.0,266.0,234.0,83.0,-70.0,-177.0,-522.0,-954.0,-505.0,-300.0,-203.0,-200.0,-200.0,-202.0,-218.0,-244.0,-278.0,-298.0,-313.0,-293.0,-257.0,-259.0,-270.0,-267.0,-253.0,-254.0,-246.0,-234.0,-265.0,-292.0,-301.0,-313.0,-346.0,-350.0,-349.0,-342.0,-369.0,-381.0,-379.0,-375.0,-369.0,-362.0,-340.0,-337.0,-318.0,-332.0,-406.0,-889.0,-1512.0,-1598.0,-1687.0,-1779.0,-2003.0,-2002.0,-1988.0,-1983.0,-2001.0,-2008.0,-2016.0,-2037.0,-2098.0,-2086.0,-2075.0,-2084.0,-2146.0,-2225.0,-2265.0,-2304.0,-2396.0,-2410.0,-2423.0,-2436.0,-2456.0,-2462.0,-2483.0,-2531.0,-2564.0,-2585.0,-2586.0,-2646.0,-2663.0,-2670.0,-2668.0,-2700.0,-2698.0,-2700.0,-2707.0,-2709.0,-2706.0,-2706.0,-2703.0,-2706.0,-2707.0,-2707.0,-2711.0,-2736.0,-2739.0,-2732.0,-2720.0,-2671.0,-2606.0,-2565.0,-2526.0,-2438.0,-2405.0,-2375.0,-2310.0,-2305.0,-2266.0,-2200.0,-2203.0,-2149.0,-2100.0,-2063.0,-1976.0,-2027.0,-2072.0,-2027.0,-1976.0,-1845.0,-1858.0,-1779.0,-1793.0,-1738.0,-1663.0,-1672.0,-1586.0,-1573.0,-1589.0,-1580.0,-1513.0,-1614.0,-1609.0,-1602.0,-1616.0,-1619.0,-1470.0,-1321.0,-1235.0,-1227.0,-1245.0,-1251.0,-1245.0,-1232.0,-1206.0,-1202.0,-1203.0,-1175.0,-1136.0,-1100.0,-1058.0,-1021.0,-1001.0,-938.0,-905.0,-824.0,-802.0,-753.0,-738.0,-637.0,-539.0,-403.0,-332.0,-313.0,-313.0,-310.0,-313.0,-363.0,-315.0,-342.0,-348.0,-346.0,-390.0,-437.0,-478.0,-535.0,-561.0,-606.0,-680.0,-980.0,-898.0,-1073.0,-1065.0,-1057.0,-1070.0,-1055.0,-1055.0,-1024.0,-1027.0,-1030.0,-1016.0,-1023.0,-986.0,-985.0,-1012.0,-1111.0,-1173.0,-1197.0,-1167.0,-1133.0,-1124.0,-1113.0,-1219.0,-1211.0,-1209.0,-1232.0,-1251.0,-1250.0,-1290.0,-1299.0,-1295.0,-1314.0,-1390.0,-1396.0,-1498.0,-1515.0
-520.0,-513.0,-515.0,-522.0,-600.0,-837.0,-893.0,-970.0,-1044.0,-1201.0,-1246.0,-1304.0,-1337.0,-1470.0,-1483.0,-1558.0,-1592.0,-1636.0,-1607.0,-1634.0,-1638.0,-1579.0,-1620.0,-1635.0,-1770.0,-1994.0,-1948.0,-1985.0,-1973.0,-2054.0,-2062.0,-2155.0,-2216.0,-2216.0,-2223.0,-2242.0,-2303.0,-2264.0,-2321.0,-2380.0,-2364.0,-2366.0,-2365.0,-2361.0,-2370.0,-2379.0,-2389.0,-2395.0,-2421.0,-2422.0,-2422.0,-2422.0,-2441.0,-2426.0,-2430.0,-2441.0,-2414.0,-2412.0,-2405.0,-2401.0,-2396.0,-2419.0,-2422.0,-2430.0,-2365.0,-2376.0,-2342.0,-2332.0,-2388.0,-2291.0,-2099.0,-1944.0,-1891.0,-1975.0,-2087.0,-2049.0,-1945.0,-1880.0,-1795.0,-1706.0,-1604.0,-1551.0,-1477.0,-1430.0,-1310.0,-1279.0,-1287.0,-1354.0,-1743.0,-2070.0,-2232.0,-2020.0,-1623.0,-1851.0,-1833.0,-1560.0,-851.0,-439.0,-161.0,-86.0,-77.0,-64.0,-58.0,-50.0,-117.0,-143.0,-110.0,-73.0,-121.0,-71.0,-6.0,-1.0,62.0,43.0,17.0,74.0,184.0,230.0,128.0,209.0,775.0,1131.0,1063.0,847.0,483.0,606.0,493.0,579.0,839.0,970.0,1104.0,1207.0,1342.0,1430.0,799.0,1435.0,1235.0,1144.0,1156.0,1232.0,1089.0,1037.0,968.0,902.0,829.0,840.0,821.0,816.0,792.0,787.0,761.0,751.0,722.0,703.0,694.0,663.0,490.0,453.0,466.0,477.0,514.0,533.0,535.0,534.0,551.0,521.0,533.0,522.0,505.0,504.0,512.0,586.0,588.0,571.0,560.0,645.0,772.0,901.0,723.0,575.0,525.0,645.0,741.0,863.0,943.0,1186.0,978.0,1249.0,1224.0,1271.0,1192.0,1113.0,838.0,669.0,1147.0,1328.0,1386.0,1525.0,1538.0,1300.0,1331.0,1219.0,1092.0,1017.0,944.0,741.0,550.0,213.0,679.0,366.0,105.0,509.0,544.0,870.0,1142.0,856.0,606.0,306.0,240.0,-55.0,-160.0,-402.0,-892.0,-560.0,-336.0,-202.0,-186.0,-193.0,-201.0,-230.0,-259.0,-284.0,-294.0,-294.0,-272.0,-242.0,-242.0,-252.0,-264.0,-264.0,-262.0,-258.0,-246.0,-253.0,-275.0,-284.0,-293.0,-321.0,-331.0,-337.0,-333.0,-348.0,-366.0,-370.0,-366.0,-364.0,-359.0,-355.0,-328.0,-326.0,-444.0,-827.0,-1278.0,-1536.0,-1650.0,-1687.0,-1807.0,-1964.0,-1992.0,-1999.0,-2003.0,-2019.0,-2027.0,-2043.0,-2070.0,-2095.0,-2076.0,-2093.0,-2151.0,-2245.0,-2273.0,-2297.0,-2314.0,-2425.0,-2407.0,-2433.0,-2461.0,-2504.0,-2490.0,-2522.0,-2587.0,-2610.0,-2610.0,-2612.0,-2655.0,-2660.0,-2687.0,-2696.0,-2692.0,-2695.0,-2699.0,-2702.0,-2705.0,-2706.0,-2706.0,-2707.0,-2713.0,-2717.0,-2723.0,-2733.0,-2764.0,-2767.0,-2750.0,-2726.0,-2650.0,-2584.0,-2517.0,-2530.0,-2445.0,-2407.0,-2366.0,-2295.0,-2316.0,-2219.0,-2156.0,-2215.0,-2137.0,-2101.0,-2098.0,-2009.0,-2145.0,-2059.0,-1925.0,-1901.0,-1866.0,-1857.0,-1792.0,-1808.0,-1755.0,-1687.0,-1669.0,-1585.0,-1557.0,-1566.0,-1626.0,-1601.0,-1639.0,-1643.0,-1625.0,-1620.0,-1603.0,-1433.0,-1287.0,-1208.0,-1237.0,-1256.0,-1257.0,-1263.0,-1264.0,-1257.0,-1247.0,-1231.0,-1190.0,-1164.0,-1137.0,-1095.0,-1081.0,-1037.0,-983.0,-979.0,-898.0,-870.0,-837.0,-820.0,-726.0,-638.0,-554.0,-462.0,-329.0,-327.0,-333.0,-350.0,-369.0,-326.0,-302.0,-361.0,-404.0,-452.0,-489.0,-533.0,-554.0,-580.0,-635.0,-719.0,-1016.0,-944.0,-1105.0,-1097.0,-1103.0,-1095.0,-1105.0,-1046.0,-1053.0,-1067.0,-1068.0,-1058.0,-1027.0,-1022.0,-1018.0,-1025.0,-1120.0,-1195.0,-1221.0,-1251.0,-1229.0,-1218.0,-1238.0,-1227.0,-1203.0,-1240.0,-1290.0,-1271.0,-1219.0,-1259.0,-1279.0,-1304.0,-1300.0,-1334.0,-1395.0,-1468.0,-1510.0
